ply
format ascii 1.0
element vertex 901
property float x
property float y
property float z
property uchar red
property uchar green
property uchar blue
end_header
 1.9000000953674316 3.700000047683716 2.799999952316284 0 0 0
 1.9000000953674316 3.700000047683716 3.0 0 0 0
 1.9000000953674316 3.9000000953674316 1.0 0 0 0
 1.9000000953674316 3.9000000953674316 1.7999999523162842 0 0 0
 1.9000000953674316 3.9000000953674316 2.0 0 0 0
 1.9000000953674316 3.9000000953674316 2.200000047683716 0 0 0
 1.9000000953674316 3.9000000953674316 2.4000000953674316 0 0 0
 1.9000000953674316 3.9000000953674316 2.5999999046325684 0 0 0
 1.9000000953674316 4.099999904632568 1.2000000476837158 0 0 0
 1.9000000953674316 4.099999904632568 1.600000023841858 0 0 0
 1.9000000953674316 4.099999904632568 2.5999999046325684 0 0 0
 1.9000000953674316 4.300000190734863 1.399999976158142 0 0 0
 1.9000000953674316 4.300000190734863 1.600000023841858 0 0 0
 2.1000001430511475 -4.900000095367432 0.800000011920929 0 0 0
 2.1000001430511475 -4.900000095367432 1.0 0 0 0
 2.1000001430511475 -4.699999809265137 0.800000011920929 0 0 0
 2.1000001430511475 -4.699999809265137 1.2000000476837158 0 0 0
 2.1000001430511475 -4.699999809265137 1.399999976158142 0 0 0
 2.1000001430511475 -4.699999809265137 1.600000023841858 0 0 0
 2.1000001430511475 -4.699999809265137 1.7999999523162842 0 0 0
 2.1000001430511475 -4.5 0.0 0 0 0
 2.1000001430511475 -4.5 0.20000000298023224 0 0 0
 2.1000001430511475 -4.5 0.4000000059604645 0 0 0
 2.1000001430511475 -4.5 0.6000000238418579 0 0 0
 2.1000001430511475 -4.5 2.0 0 0 0
 2.1000001430511475 -4.299999713897705 0.0 0 0 0
 2.1000001430511475 -4.299999713897705 2.200000047683716 0 0 0
 2.1000001430511475 -4.099999904632568 0.0 0 0 0
 2.1000001430511475 -4.099999904632568 2.4000000953674316 0 0 0
 2.1000001430511475 -4.099999904632568 2.5999999046325684 0 0 0
 2.1000001430511475 -3.8999998569488525 0.0 0 0 0
 2.1000001430511475 -3.8999998569488525 2.5999999046325684 0 0 0
 2.1000001430511475 -3.6999998092651367 0.0 0 0 0
 2.1000001430511475 -3.6999998092651367 2.799999952316284 0 0 0
 2.1000001430511475 -3.6999998092651367 3.0 0 0 0
 2.1000001430511475 -3.5 0.0 0 0 0
 2.1000001430511475 -3.5 3.200000047683716 0 0 0
 2.1000001430511475 -3.299999952316284 0.0 0 0 0
 2.1000001430511475 -3.299999952316284 3.200000047683716 0 0 0
 2.1000001430511475 -3.0999999046325684 0.0 0 0 0
 2.1000001430511475 -3.0999999046325684 3.4000000953674316 0 0 0
 2.1000001430511475 -2.8999998569488525 0.0 0 0 0
 2.1000001430511475 -2.8999998569488525 3.5999999046325684 0 0 0
 2.1000001430511475 -2.6999998092651367 0.0 0 0 0
 2.1000001430511475 -2.6999998092651367 3.799999952316284 0 0 0
 2.1000001430511475 -2.5 0.0 0 0 0
 2.1000001430511475 -2.5 3.799999952316284 0 0 0
 2.1000001430511475 -2.299999952316284 0.0 0 0 0
 2.1000001430511475 -2.299999952316284 4.0 0 0 0
 2.1000001430511475 -2.0999999046325684 0.0 0 0 0
 2.1000001430511475 -2.0999999046325684 4.199999809265137 0 0 0
 2.1000001430511475 -1.8999998569488525 0.0 0 0 0
 2.1000001430511475 -1.8999998569488525 4.400000095367432 0 0 0
 2.1000001430511475 -1.8999998569488525 4.599999904632568 0 0 0
 2.1000001430511475 -1.8999998569488525 4.800000190734863 0 0 0
 2.1000001430511475 -1.6999999284744263 0.0 0 0 0
 2.1000001430511475 -1.6999999284744263 4.599999904632568 0 0 0
 2.1000001430511475 -1.6999999284744263 4.800000190734863 0 0 0
 2.1000001430511475 -1.4999998807907104 0.0 0 0 0
 2.1000001430511475 -1.4999998807907104 5.0 0 0 0
 2.1000001430511475 -1.2999999523162842 0.0 0 0 0
 2.1000001430511475 -1.2999999523162842 5.199999809265137 0 0 0
 2.1000001430511475 -1.0999999046325684 0.0 0 0 0
 2.1000001430511475 -1.0999999046325684 5.199999809265137 0 0 0
 2.1000001430511475 -0.8999999165534973 0.0 0 0 0
 2.1000001430511475 -0.8999999165534973 5.400000095367432 0 0 0
 2.1000001430511475 -0.6999999284744263 0.0 0 0 0
 2.1000001430511475 -0.6999999284744263 5.599999904632568 0 0 0
 2.1000001430511475 -0.49999991059303284 0.0 0 0 0
 2.1000001430511475 -0.49999991059303284 5.599999904632568 0 0 0
 2.1000001430511475 -0.2999998927116394 0.0 0 0 0
 2.1000001430511475 -0.2999998927116394 5.800000190734863 0 0 0
 2.1000001430511475 -0.09999990463256836 0.0 0 0 0
 2.1000001430511475 -0.09999990463256836 6.0 0 0 0
 2.1000001430511475 0.10000009834766388 0.0 0 0 0
 2.1000001430511475 0.10000009834766388 6.199999809265137 0 0 0
 2.1000001430511475 0.10000009834766388 6.400000095367432 0 0 0
 2.1000001430511475 0.10000009834766388 6.599999904632568 0 0 0
 2.1000001430511475 0.3000001013278961 0.0 0 0 0
 2.1000001430511475 0.3000001013278961 6.400000095367432 0 0 0
 2.1000001430511475 0.3000001013278961 6.599999904632568 0 0 0
 2.1000001430511475 0.5000001192092896 0.0 0 0 0
 2.1000001430511475 0.5000001192092896 6.599999904632568 0 0 0
 2.1000001430511475 0.5000001192092896 6.800000190734863 0 0 0
 2.1000001430511475 0.7000001072883606 0.0 0 0 0
 2.1000001430511475 0.7000001072883606 6.400000095367432 0 0 0
 2.1000001430511475 0.9000000953674316 0.0 0 0 0
 2.1000001430511475 0.9000000953674316 6.0 0 0 0
 2.1000001430511475 0.9000000953674316 6.199999809265137 0 0 0
 2.1000001430511475 1.1000001430511475 0.0 0 0 0
 2.1000001430511475 1.1000001430511475 5.800000190734863 0 0 0
 2.1000001430511475 1.3000000715255737 0.0 0 0 0
 2.1000001430511475 1.3000000715255737 5.599999904632568 0 0 0
 2.1000001430511475 1.5000001192092896 0.0 0 0 0
 2.1000001430511475 1.5000001192092896 5.400000095367432 0 0 0
 2.1000001430511475 1.7000000476837158 0.0 0 0 0
 2.1000001430511475 1.7000000476837158 5.199999809265137 0 0 0
 2.1000001430511475 1.9000000953674316 0.0 0 0 0
 2.1000001430511475 1.9000000953674316 5.0 0 0 0
 2.1000001430511475 1.9000000953674316 5.199999809265137 0 0 0
 2.1000001430511475 2.1000001430511475 0.0 0 0 0
 2.1000001430511475 2.1000001430511475 4.800000190734863 0 0 0
 2.1000001430511475 2.3000001907348633 0.0 0 0 0
 2.1000001430511475 2.3000001907348633 4.400000095367432 0 0 0
 2.1000001430511475 2.3000001907348633 4.599999904632568 0 0 0
 2.1000001430511475 2.5 0.0 0 0 0
 2.1000001430511475 2.5 4.199999809265137 0 0 0
 2.1000001430511475 2.700000047683716 0.20000000298023224 0 0 0
 2.1000001430511475 2.700000047683716 3.799999952316284 0 0 0
 2.1000001430511475 2.700000047683716 4.0 0 0 0
 2.1000001430511475 2.9000000953674316 0.20000000298023224 0 0 0
 2.1000001430511475 2.9000000953674316 3.5999999046325684 0 0 0
 2.1000001430511475 3.1000001430511475 0.4000000059604645 0 0 0
 2.1000001430511475 3.1000001430511475 3.5999999046325684 0 0 0
 2.1000001430511475 3.3000001907348633 0.6000000238418579 0 0 0
 2.1000001430511475 3.3000001907348633 3.4000000953674316 0 0 0
 2.1000001430511475 3.5 0.800000011920929 0 0 0
 2.1000001430511475 3.5 3.200000047683716 0 0 0
 2.1000001430511475 3.700000047683716 0.800000011920929 0 0 0
 2.1000001430511475 3.700000047683716 2.799999952316284 0 0 0
 2.1000001430511475 3.700000047683716 3.0 0 0 0
 2.1000001430511475 3.9000000953674316 1.0 0 0 0
 2.1000001430511475 3.9000000953674316 1.600000023841858 0 0 0
 2.1000001430511475 3.9000000953674316 1.7999999523162842 0 0 0
 2.1000001430511475 3.9000000953674316 2.5999999046325684 0 0 0
 2.1000001430511475 4.099999904632568 1.2000000476837158 0 0 0
 2.1000001430511475 4.099999904632568 1.399999976158142 0 0 0
 2.1000001430511475 4.099999904632568 2.0 0 0 0
 2.1000001430511475 4.099999904632568 2.200000047683716 0 0 0
 2.1000001430511475 4.099999904632568 2.4000000953674316 0 0 0
 2.1000001430511475 4.099999904632568 2.5999999046325684 0 0 0
 2.1000001430511475 4.300000190734863 1.399999976158142 0 0 0
 2.299999952316284 -4.900000095367432 0.800000011920929 0 0 0
 2.299999952316284 -4.699999809265137 0.800000011920929 0 0 0
 2.299999952316284 -4.699999809265137 1.0 0 0 0
 2.299999952316284 -4.699999809265137 1.2000000476837158 0 0 0
 2.299999952316284 -4.699999809265137 1.399999976158142 0 0 0
 2.299999952316284 -4.699999809265137 1.600000023841858 0 0 0
 2.299999952316284 -4.699999809265137 1.7999999523162842 0 0 0
 2.299999952316284 -4.699999809265137 2.0 0 0 0
 2.299999952316284 -4.5 0.0 0 0 0
 2.299999952316284 -4.5 0.20000000298023224 0 0 0
 2.299999952316284 -4.5 0.4000000059604645 0 0 0
 2.299999952316284 -4.5 0.6000000238418579 0 0 0
 2.299999952316284 -4.5 2.200000047683716 0 0 0
 2.299999952316284 -4.299999713897705 0.0 0 0 0
 2.299999952316284 -4.299999713897705 2.4000000953674316 0 0 0
 2.299999952316284 -4.099999904632568 0.0 0 0 0
 2.299999952316284 -4.099999904632568 2.5999999046325684 0 0 0
 2.299999952316284 -3.8999998569488525 0.0 0 0 0
 2.299999952316284 -3.8999998569488525 2.799999952316284 0 0 0
 2.299999952316284 -3.6999998092651367 0.0 0 0 0
 2.299999952316284 -3.6999998092651367 3.0 0 0 0
 2.299999952316284 -3.5 0.0 0 0 0
 2.299999952316284 -3.5 3.200000047683716 0 0 0
 2.299999952316284 -3.299999952316284 0.0 0 0 0
 2.299999952316284 -3.299999952316284 3.200000047683716 0 0 0
 2.299999952316284 -3.0999999046325684 0.0 0 0 0
 2.299999952316284 -3.0999999046325684 3.4000000953674316 0 0 0
 2.299999952316284 -2.8999998569488525 0.0 0 0 0
 2.299999952316284 -2.8999998569488525 3.5999999046325684 0 0 0
 2.299999952316284 -2.6999998092651367 0.0 0 0 0
 2.299999952316284 -2.6999998092651367 3.5999999046325684 0 0 0
 2.299999952316284 -2.5 0.0 0 0 0
 2.299999952316284 -2.5 3.799999952316284 0 0 0
 2.299999952316284 -2.5 4.0 0 0 0
 2.299999952316284 -2.5 4.199999809265137 0 0 0
 2.299999952316284 -2.299999952316284 0.0 0 0 0
 2.299999952316284 -2.299999952316284 4.199999809265137 0 0 0
 2.299999952316284 -2.299999952316284 4.400000095367432 0 0 0
 2.299999952316284 -2.0999999046325684 0.0 0 0 0
 2.299999952316284 -2.0999999046325684 4.400000095367432 0 0 0
 2.299999952316284 -2.0999999046325684 4.599999904632568 0 0 0
 2.299999952316284 -1.8999998569488525 0.0 0 0 0
 2.299999952316284 -1.8999998569488525 4.599999904632568 0 0 0
 2.299999952316284 -1.6999999284744263 0.0 0 0 0
 2.299999952316284 -1.6999999284744263 4.800000190734863 0 0 0
 2.299999952316284 -1.4999998807907104 0.0 0 0 0
 2.299999952316284 -1.4999998807907104 5.0 0 0 0
 2.299999952316284 -1.2999999523162842 0.0 0 0 0
 2.299999952316284 -1.2999999523162842 5.199999809265137 0 0 0
 2.299999952316284 -1.0999999046325684 0.0 0 0 0
 2.299999952316284 -1.0999999046325684 5.199999809265137 0 0 0
 2.299999952316284 -0.8999999165534973 0.0 0 0 0
 2.299999952316284 -0.8999999165534973 5.400000095367432 0 0 0
 2.299999952316284 -0.6999999284744263 0.0 0 0 0
 2.299999952316284 -0.6999999284744263 5.599999904632568 0 0 0
 2.299999952316284 -0.49999991059303284 0.0 0 0 0
 2.299999952316284 -0.49999991059303284 5.800000190734863 0 0 0
 2.299999952316284 -0.49999991059303284 6.0 0 0 0
 2.299999952316284 -0.2999998927116394 0.0 0 0 0
 2.299999952316284 -0.2999998927116394 6.0 0 0 0
 2.299999952316284 -0.2999998927116394 6.199999809265137 0 0 0
 2.299999952316284 -0.09999990463256836 0.0 0 0 0
 2.299999952316284 -0.09999990463256836 6.199999809265137 0 0 0
 2.299999952316284 -0.09999990463256836 6.400000095367432 0 0 0
 2.299999952316284 0.10000009834766388 0.0 0 0 0
 2.299999952316284 0.10000009834766388 6.599999904632568 0 0 0
 2.299999952316284 0.3000001013278961 0.0 0 0 0
 2.299999952316284 0.3000001013278961 6.599999904632568 0 0 0
 2.299999952316284 0.5000001192092896 0.0 0 0 0
 2.299999952316284 0.5000001192092896 6.800000190734863 0 0 0
 2.299999952316284 0.7000001072883606 0.0 0 0 0
 2.299999952316284 0.7000001072883606 6.400000095367432 0 0 0
 2.299999952316284 0.7000001072883606 6.599999904632568 0 0 0
 2.299999952316284 0.7000001072883606 6.800000190734863 0 0 0
 2.299999952316284 0.9000000953674316 0.0 0 0 0
 2.299999952316284 0.9000000953674316 6.199999809265137 0 0 0
 2.299999952316284 1.1000001430511475 0.0 0 0 0
 2.299999952316284 1.1000001430511475 6.0 0 0 0
 2.299999952316284 1.3000000715255737 0.0 0 0 0
 2.299999952316284 1.3000000715255737 5.599999904632568 0 0 0
 2.299999952316284 1.3000000715255737 5.800000190734863 0 0 0
 2.299999952316284 1.5000001192092896 0.0 0 0 0
 2.299999952316284 1.5000001192092896 5.400000095367432 0 0 0
 2.299999952316284 1.7000000476837158 0.0 0 0 0
 2.299999952316284 1.7000000476837158 5.199999809265137 0 0 0
 2.299999952316284 1.9000000953674316 0.0 0 0 0
 2.299999952316284 1.9000000953674316 5.199999809265137 0 0 0
 2.299999952316284 2.1000001430511475 0.0 0 0 0
 2.299999952316284 2.1000001430511475 4.800000190734863 0 0 0
 2.299999952316284 2.1000001430511475 5.0 0 0 0
 2.299999952316284 2.3000001907348633 0.0 0 0 0
 2.299999952316284 2.3000001907348633 4.599999904632568 0 0 0
 2.299999952316284 2.5 0.0 0 0 0
 2.299999952316284 2.5 4.199999809265137 0 0 0
 2.299999952316284 2.5 4.400000095367432 0 0 0
 2.299999952316284 2.700000047683716 0.20000000298023224 0 0 0
 2.299999952316284 2.700000047683716 4.0 0 0 0
 2.299999952316284 2.9000000953674316 0.20000000298023224 0 0 0
 2.299999952316284 2.9000000953674316 3.5999999046325684 0 0 0
 2.299999952316284 2.9000000953674316 3.799999952316284 0 0 0
 2.299999952316284 2.9000000953674316 4.0 0 0 0
 2.299999952316284 3.1000001430511475 0.4000000059604645 0 0 0
 2.299999952316284 3.1000001430511475 3.4000000953674316 0 0 0
 2.299999952316284 3.3000001907348633 0.6000000238418579 0 0 0
 2.299999952316284 3.3000001907348633 3.4000000953674316 0 0 0
 2.299999952316284 3.5 0.800000011920929 0 0 0
 2.299999952316284 3.5 3.200000047683716 0 0 0
 2.299999952316284 3.5 3.4000000953674316 0 0 0
 2.299999952316284 3.700000047683716 0.800000011920929 0 0 0
 2.299999952316284 3.700000047683716 3.0 0 0 0
 2.299999952316284 3.9000000953674316 1.0 0 0 0
 2.299999952316284 3.9000000953674316 1.399999976158142 0 0 0
 2.299999952316284 3.9000000953674316 2.5999999046325684 0 0 0
 2.299999952316284 3.9000000953674316 2.799999952316284 0 0 0
 2.299999952316284 4.099999904632568 1.2000000476837158 0 0 0
 2.299999952316284 4.099999904632568 1.600000023841858 0 0 0
 2.299999952316284 4.099999904632568 1.7999999523162842 0 0 0
 2.299999952316284 4.099999904632568 2.0 0 0 0
 2.299999952316284 4.099999904632568 2.200000047683716 0 0 0
 2.299999952316284 4.099999904632568 2.4000000953674316 0 0 0
 2.299999952316284 4.300000190734863 1.2000000476837158 0 0 0
 2.5 -4.900000095367432 1.7999999523162842 0 0 0
 2.5 -4.900000095367432 2.0 0 0 0
 2.5 -4.699999809265137 0.6000000238418579 0 0 0
 2.5 -4.699999809265137 0.800000011920929 0 0 0
 2.5 -4.699999809265137 1.0 0 0 0
 2.5 -4.699999809265137 1.2000000476837158 0 0 0
 2.5 -4.699999809265137 1.399999976158142 0 0 0
 2.5 -4.699999809265137 1.600000023841858 0 0 0
 2.5 -4.699999809265137 2.0 0 0 0
 2.5 -4.5 0.0 0 0 0
 2.5 -4.5 0.20000000298023224 0 0 0
 2.5 -4.5 0.4000000059604645 0 0 0
 2.5 -4.5 2.200000047683716 0 0 0
 2.5 -4.299999713897705 0.0 0 0 0
 2.5 -4.299999713897705 2.4000000953674316 0 0 0
 2.5 -4.299999713897705 2.5999999046325684 0 0 0
 2.5 -4.099999904632568 0.0 0 0 0
 2.5 -4.099999904632568 2.5999999046325684 0 0 0
 2.5 -3.8999998569488525 0.0 0 0 0
 2.5 -3.8999998569488525 2.799999952316284 0 0 0
 2.5 -3.6999998092651367 0.0 0 0 0
 2.5 -3.6999998092651367 3.0 0 0 0
 2.5 -3.5 0.0 0 0 0
 2.5 -3.5 3.200000047683716 0 0 0
 2.5 -3.299999952316284 0.0 0 0 0
 2.5 -3.299999952316284 3.200000047683716 0 0 0
 2.5 -3.0999999046325684 0.0 0 0 0
 2.5 -3.0999999046325684 3.4000000953674316 0 0 0
 2.5 -3.0999999046325684 3.5999999046325684 0 0 0
 2.5 -3.0999999046325684 3.799999952316284 0 0 0
 2.5 -2.8999998569488525 0.0 0 0 0
 2.5 -2.8999998569488525 3.799999952316284 0 0 0
 2.5 -2.8999998569488525 4.0 0 0 0
 2.5 -2.6999998092651367 0.0 0 0 0
 2.5 -2.6999998092651367 3.799999952316284 0 0 0
 2.5 -2.6999998092651367 4.0 0 0 0
 2.5 -2.5 0.0 0 0 0
 2.5 -2.5 4.199999809265137 0 0 0
 2.5 -2.299999952316284 0.0 0 0 0
 2.5 -2.299999952316284 4.400000095367432 0 0 0
 2.5 -2.0999999046325684 0.0 0 0 0
 2.5 -2.0999999046325684 4.599999904632568 0 0 0
 2.5 -1.8999998569488525 0.0 0 0 0
 2.5 -1.8999998569488525 4.599999904632568 0 0 0
 2.5 -1.6999999284744263 0.0 0 0 0
 2.5 -1.6999999284744263 4.800000190734863 0 0 0
 2.5 -1.4999998807907104 0.0 0 0 0
 2.5 -1.4999998807907104 5.0 0 0 0
 2.5 -1.2999999523162842 0.0 0 0 0
 2.5 -1.2999999523162842 5.0 0 0 0
 2.5 -1.0999999046325684 0.0 0 0 0
 2.5 -1.0999999046325684 5.199999809265137 0 0 0
 2.5 -1.0999999046325684 5.400000095367432 0 0 0
 2.5 -1.0999999046325684 5.599999904632568 0 0 0
 2.5 -0.8999999165534973 0.0 0 0 0
 2.5 -0.8999999165534973 5.599999904632568 0 0 0
 2.5 -0.8999999165534973 5.800000190734863 0 0 0
 2.5 -0.6999999284744263 0.0 0 0 0
 2.5 -0.6999999284744263 5.800000190734863 0 0 0
 2.5 -0.6999999284744263 6.0 0 0 0
 2.5 -0.49999991059303284 0.0 0 0 0
 2.5 -0.49999991059303284 6.0 0 0 0
 2.5 -0.2999998927116394 0.0 0 0 0
 2.5 -0.2999998927116394 6.199999809265137 0 0 0
 2.5 -0.09999990463256836 0.0 0 0 0
 2.5 -0.09999990463256836 6.400000095367432 0 0 0
 2.5 0.10000009834766388 0.0 0 0 0
 2.5 0.10000009834766388 6.400000095367432 0 0 0
 2.5 0.3000001013278961 0.0 0 0 0
 2.5 0.3000001013278961 6.599999904632568 0 0 0
 2.5 0.5000001192092896 0.0 0 0 0
 2.5 0.5000001192092896 6.800000190734863 0 0 0
 2.5 0.7000001072883606 0.0 0 0 0
 2.5 0.7000001072883606 6.800000190734863 0 0 0
 2.5 0.9000000953674316 0.0 0 0 0
 2.5 0.9000000953674316 6.400000095367432 0 0 0
 2.5 0.9000000953674316 6.599999904632568 0 0 0
 2.5 1.1000001430511475 0.0 0 0 0
 2.5 1.1000001430511475 6.199999809265137 0 0 0
 2.5 1.3000000715255737 0.0 0 0 0
 2.5 1.3000000715255737 5.800000190734863 0 0 0
 2.5 1.3000000715255737 6.0 0 0 0
 2.5 1.5000001192092896 0.0 0 0 0
 2.5 1.5000001192092896 5.599999904632568 0 0 0
 2.5 1.7000000476837158 0.0 0 0 0
 2.5 1.7000000476837158 5.199999809265137 0 0 0
 2.5 1.7000000476837158 5.400000095367432 0 0 0
 2.5 1.7000000476837158 5.599999904632568 0 0 0
 2.5 1.9000000953674316 0.0 0 0 0
 2.5 1.9000000953674316 5.0 0 0 0
 2.5 2.1000001430511475 0.0 0 0 0
 2.5 2.1000001430511475 4.599999904632568 0 0 0
 2.5 2.1000001430511475 5.0 0 0 0
 2.5 2.3000001907348633 0.0 0 0 0
 2.5 2.3000001907348633 4.400000095367432 0 0 0
 2.5 2.3000001907348633 4.800000190734863 0 0 0
 2.5 2.3000001907348633 5.0 0 0 0
 2.5 2.5 0.0 0 0 0
 2.5 2.5 4.400000095367432 0 0 0
 2.5 2.700000047683716 0.0 0 0 0
 2.5 2.700000047683716 4.0 0 0 0
 2.5 2.700000047683716 4.199999809265137 0 0 0
 2.5 2.700000047683716 4.400000095367432 0 0 0
 2.5 2.9000000953674316 0.20000000298023224 0 0 0
 2.5 2.9000000953674316 3.799999952316284 0 0 0
 2.5 3.1000001430511475 0.4000000059604645 0 0 0
 2.5 3.1000001430511475 3.4000000953674316 0 0 0
 2.5 3.1000001430511475 3.5999999046325684 0 0 0
 2.5 3.1000001430511475 3.799999952316284 0 0 0
 2.5 3.3000001907348633 0.6000000238418579 0 0 0
 2.5 3.3000001907348633 3.200000047683716 0 0 0
 2.5 3.5 0.6000000238418579 0 0 0
 2.5 3.5 3.200000047683716 0 0 0
 2.5 3.700000047683716 0.800000011920929 0 0 0
 2.5 3.700000047683716 3.0 0 0 0
 2.5 3.700000047683716 3.200000047683716 0 0 0
 2.5 3.9000000953674316 1.0 0 0 0
 2.5 3.9000000953674316 2.799999952316284 0 0 0
 2.5 4.099999904632568 1.2000000476837158 0 0 0
 2.5 4.099999904632568 1.399999976158142 0 0 0
 2.5 4.099999904632568 1.600000023841858 0 0 0
 2.5 4.099999904632568 1.7999999523162842 0 0 0
 2.5 4.099999904632568 2.0 0 0 0
 2.5 4.099999904632568 2.200000047683716 0 0 0
 2.5 4.099999904632568 2.4000000953674316 0 0 0
 2.5 4.099999904632568 2.5999999046325684 0 0 0
 2.5 4.099999904632568 2.799999952316284 0 0 0
 2.700000047683716 -4.900000095367432 1.600000023841858 0 0 0
 2.700000047683716 -4.900000095367432 1.7999999523162842 0 0 0
 2.700000047683716 -4.699999809265137 0.4000000059604645 0 0 0
 2.700000047683716 -4.699999809265137 0.6000000238418579 0 0 0
 2.700000047683716 -4.699999809265137 0.800000011920929 0 0 0
 2.700000047683716 -4.699999809265137 1.0 0 0 0
 2.700000047683716 -4.699999809265137 1.2000000476837158 0 0 0
 2.700000047683716 -4.699999809265137 1.399999976158142 0 0 0
 2.700000047683716 -4.699999809265137 2.0 0 0 0
 2.700000047683716 -4.699999809265137 2.200000047683716 0 0 0
 2.700000047683716 -4.5 0.0 0 0 0
 2.700000047683716 -4.5 0.20000000298023224 0 0 0
 2.700000047683716 -4.5 2.4000000953674316 0 0 0
 2.700000047683716 -4.299999713897705 0.0 0 0 0
 2.700000047683716 -4.299999713897705 2.5999999046325684 0 0 0
 2.700000047683716 -4.099999904632568 0.0 0 0 0
 2.700000047683716 -4.099999904632568 2.5999999046325684 0 0 0
 2.700000047683716 -3.8999998569488525 0.0 0 0 0
 2.700000047683716 -3.8999998569488525 2.799999952316284 0 0 0
 2.700000047683716 -3.6999998092651367 0.0 0 0 0
 2.700000047683716 -3.6999998092651367 3.0 0 0 0
 2.700000047683716 -3.6999998092651367 3.200000047683716 0 0 0
 2.700000047683716 -3.6999998092651367 3.4000000953674316 0 0 0
 2.700000047683716 -3.5 0.0 0 0 0
 2.700000047683716 -3.5 3.4000000953674316 0 0 0
 2.700000047683716 -3.5 3.5999999046325684 0 0 0
 2.700000047683716 -3.299999952316284 0.0 0 0 0
 2.700000047683716 -3.299999952316284 3.4000000953674316 0 0 0
 2.700000047683716 -3.299999952316284 3.5999999046325684 0 0 0
 2.700000047683716 -3.0999999046325684 0.0 0 0 0
 2.700000047683716 -3.0999999046325684 3.799999952316284 0 0 0
 2.700000047683716 -2.8999998569488525 0.0 0 0 0
 2.700000047683716 -2.8999998569488525 4.0 0 0 0
 2.700000047683716 -2.6999998092651367 0.0 0 0 0
 2.700000047683716 -2.6999998092651367 4.0 0 0 0
 2.700000047683716 -2.5 0.0 0 0 0
 2.700000047683716 -2.5 4.199999809265137 0 0 0
 2.700000047683716 -2.299999952316284 0.0 0 0 0
 2.700000047683716 -2.299999952316284 4.400000095367432 0 0 0
 2.700000047683716 -2.0999999046325684 0.0 0 0 0
 2.700000047683716 -2.0999999046325684 4.400000095367432 0 0 0
 2.700000047683716 -1.8999998569488525 0.0 0 0 0
 2.700000047683716 -1.8999998569488525 4.599999904632568 0 0 0
 2.700000047683716 -1.6999999284744263 0.0 0 0 0
 2.700000047683716 -1.6999999284744263 4.800000190734863 0 0 0
 2.700000047683716 -1.6999999284744263 5.0 0 0 0
 2.700000047683716 -1.6999999284744263 5.199999809265137 0 0 0
 2.700000047683716 -1.4999998807907104 0.0 0 0 0
 2.700000047683716 -1.4999998807907104 5.199999809265137 0 0 0
 2.700000047683716 -1.2999999523162842 0.0 0 0 0
 2.700000047683716 -1.2999999523162842 5.199999809265137 0 0 0
 2.700000047683716 -1.2999999523162842 5.400000095367432 0 0 0
 2.700000047683716 -1.0999999046325684 0.0 0 0 0
 2.700000047683716 -1.0999999046325684 5.599999904632568 0 0 0
 2.700000047683716 -0.8999999165534973 0.0 0 0 0
 2.700000047683716 -0.8999999165534973 5.800000190734863 0 0 0
 2.700000047683716 -0.6999999284744263 0.0 0 0 0
 2.700000047683716 -0.6999999284744263 5.800000190734863 0 0 0
 2.700000047683716 -0.49999991059303284 0.0 0 0 0
 2.700000047683716 -0.49999991059303284 6.0 0 0 0
 2.700000047683716 -0.2999998927116394 0.0 0 0 0
 2.700000047683716 -0.2999998927116394 6.199999809265137 0 0 0
 2.700000047683716 -0.09999990463256836 0.0 0 0 0
 2.700000047683716 -0.09999990463256836 6.400000095367432 0 0 0
 2.700000047683716 0.10000009834766388 0.0 0 0 0
 2.700000047683716 0.10000009834766388 6.400000095367432 0 0 0
 2.700000047683716 0.3000001013278961 0.0 0 0 0
 2.700000047683716 0.3000001013278961 6.599999904632568 0 0 0
 2.700000047683716 0.5000001192092896 0.0 0 0 0
 2.700000047683716 0.5000001192092896 6.800000190734863 0 0 0
 2.700000047683716 0.7000001072883606 0.0 0 0 0
 2.700000047683716 0.7000001072883606 6.599999904632568 0 0 0
 2.700000047683716 0.9000000953674316 0.0 0 0 0
 2.700000047683716 0.9000000953674316 6.599999904632568 0 0 0
 2.700000047683716 1.1000001430511475 0.0 0 0 0
 2.700000047683716 1.1000001430511475 6.199999809265137 0 0 0
 2.700000047683716 1.1000001430511475 6.400000095367432 0 0 0
 2.700000047683716 1.1000001430511475 6.599999904632568 0 0 0
 2.700000047683716 1.3000000715255737 0.0 0 0 0
 2.700000047683716 1.3000000715255737 6.0 0 0 0
 2.700000047683716 1.5000001192092896 0.0 0 0 0
 2.700000047683716 1.5000001192092896 5.599999904632568 0 0 0
 2.700000047683716 1.5000001192092896 5.800000190734863 0 0 0
 2.700000047683716 1.5000001192092896 6.0 0 0 0
 2.700000047683716 1.7000000476837158 0.0 0 0 0
 2.700000047683716 1.7000000476837158 5.400000095367432 0 0 0
 2.700000047683716 1.9000000953674316 0.0 0 0 0
 2.700000047683716 1.9000000953674316 5.199999809265137 0 0 0
 2.700000047683716 1.9000000953674316 5.400000095367432 0 0 0
 2.700000047683716 2.1000001430511475 0.0 0 0 0
 2.700000047683716 2.1000001430511475 5.0 0 0 0
 2.700000047683716 2.3000001907348633 0.0 0 0 0
 2.700000047683716 2.3000001907348633 4.599999904632568 0 0 0
 2.700000047683716 2.3000001907348633 4.800000190734863 0 0 0
 2.700000047683716 2.5 0.0 0 0 0
 2.700000047683716 2.5 4.400000095367432 0 0 0
 2.700000047683716 2.5 4.800000190734863 0 0 0
 2.700000047683716 2.700000047683716 0.0 0 0 0
 2.700000047683716 2.700000047683716 4.199999809265137 0 0 0
 2.700000047683716 2.9000000953674316 0.20000000298023224 0 0 0
 2.700000047683716 2.9000000953674316 4.0 0 0 0
 2.700000047683716 2.9000000953674316 4.199999809265137 0 0 0
 2.700000047683716 3.1000001430511475 0.4000000059604645 0 0 0
 2.700000047683716 3.1000001430511475 3.799999952316284 0 0 0
 2.700000047683716 3.3000001907348633 0.6000000238418579 0 0 0
 2.700000047683716 3.3000001907348633 3.4000000953674316 0 0 0
 2.700000047683716 3.3000001907348633 3.5999999046325684 0 0 0
 2.700000047683716 3.5 0.6000000238418579 0 0 0
 2.700000047683716 3.5 3.200000047683716 0 0 0
 2.700000047683716 3.700000047683716 0.800000011920929 0 0 0
 2.700000047683716 3.700000047683716 3.0 0 0 0
 2.700000047683716 3.9000000953674316 1.0 0 0 0
 2.700000047683716 3.9000000953674316 2.799999952316284 0 0 0
 2.700000047683716 3.9000000953674316 3.0 0 0 0
 2.700000047683716 4.099999904632568 1.0 0 0 0
 2.700000047683716 4.099999904632568 1.2000000476837158 0 0 0
 2.700000047683716 4.099999904632568 1.399999976158142 0 0 0
 2.700000047683716 4.099999904632568 1.600000023841858 0 0 0
 2.700000047683716 4.099999904632568 1.7999999523162842 0 0 0
 2.700000047683716 4.099999904632568 2.0 0 0 0
 2.700000047683716 4.099999904632568 2.200000047683716 0 0 0
 2.700000047683716 4.099999904632568 2.4000000953674316 0 0 0
 2.700000047683716 4.099999904632568 2.5999999046325684 0 0 0
 2.9000000953674316 -4.900000095367432 1.399999976158142 0 0 0
 2.9000000953674316 -4.900000095367432 1.600000023841858 0 0 0
 2.9000000953674316 -4.900000095367432 1.7999999523162842 0 0 0
 2.9000000953674316 -4.900000095367432 2.0 0 0 0
 2.9000000953674316 -4.699999809265137 0.20000000298023224 0 0 0
 2.9000000953674316 -4.699999809265137 0.4000000059604645 0 0 0
 2.9000000953674316 -4.699999809265137 0.6000000238418579 0 0 0
 2.9000000953674316 -4.699999809265137 0.800000011920929 0 0 0
 2.9000000953674316 -4.699999809265137 1.0 0 0 0
 2.9000000953674316 -4.699999809265137 1.2000000476837158 0 0 0
 2.9000000953674316 -4.699999809265137 2.200000047683716 0 0 0
 2.9000000953674316 -4.5 0.0 0 0 0
 2.9000000953674316 -4.5 2.4000000953674316 0 0 0
 2.9000000953674316 -4.299999713897705 0.0 0 0 0
 2.9000000953674316 -4.299999713897705 2.5999999046325684 0 0 0
 2.9000000953674316 -4.299999713897705 2.799999952316284 0 0 0
 2.9000000953674316 -4.099999904632568 0.0 0 0 0
 2.9000000953674316 -4.099999904632568 2.799999952316284 0 0 0
 2.9000000953674316 -4.099999904632568 3.0 0 0 0
 2.9000000953674316 -3.8999998569488525 0.0 0 0 0
 2.9000000953674316 -3.8999998569488525 3.0 0 0 0
 2.9000000953674316 -3.8999998569488525 3.200000047683716 0 0 0
 2.9000000953674316 -3.6999998092651367 0.0 0 0 0
 2.9000000953674316 -3.6999998092651367 3.4000000953674316 0 0 0
 2.9000000953674316 -3.5 0.0 0 0 0
 2.9000000953674316 -3.5 3.4000000953674316 0 0 0
 2.9000000953674316 -3.299999952316284 0.0 0 0 0
 2.9000000953674316 -3.299999952316284 3.5999999046325684 0 0 0
 2.9000000953674316 -3.0999999046325684 0.0 0 0 0
 2.9000000953674316 -3.0999999046325684 3.799999952316284 0 0 0
 2.9000000953674316 -2.8999998569488525 0.0 0 0 0
 2.9000000953674316 -2.8999998569488525 4.0 0 0 0
 2.9000000953674316 -2.6999998092651367 0.0 0 0 0
 2.9000000953674316 -2.6999998092651367 4.0 0 0 0
 2.9000000953674316 -2.5 0.0 0 0 0
 2.9000000953674316 -2.5 4.199999809265137 0 0 0
 2.9000000953674316 -2.299999952316284 0.0 0 0 0
 2.9000000953674316 -2.299999952316284 4.400000095367432 0 0 0
 2.9000000953674316 -2.299999952316284 4.599999904632568 0 0 0
 2.9000000953674316 -2.0999999046325684 0.0 0 0 0
 2.9000000953674316 -2.0999999046325684 4.599999904632568 0 0 0
 2.9000000953674316 -2.0999999046325684 4.800000190734863 0 0 0
 2.9000000953674316 -1.8999998569488525 0.0 0 0 0
 2.9000000953674316 -1.8999998569488525 4.800000190734863 0 0 0
 2.9000000953674316 -1.8999998569488525 5.0 0 0 0
 2.9000000953674316 -1.6999999284744263 0.0 0 0 0
 2.9000000953674316 -1.6999999284744263 5.199999809265137 0 0 0
 2.9000000953674316 -1.4999998807907104 0.0 0 0 0
 2.9000000953674316 -1.4999998807907104 5.400000095367432 0 0 0
 2.9000000953674316 -1.2999999523162842 0.0 0 0 0
 2.9000000953674316 -1.2999999523162842 5.400000095367432 0 0 0
 2.9000000953674316 -1.0999999046325684 0.0 0 0 0
 2.9000000953674316 -1.0999999046325684 5.599999904632568 0 0 0
 2.9000000953674316 -0.8999999165534973 0.0 0 0 0
 2.9000000953674316 -0.8999999165534973 5.800000190734863 0 0 0
 2.9000000953674316 -0.6999999284744263 0.0 0 0 0
 2.9000000953674316 -0.6999999284744263 5.800000190734863 0 0 0
 2.9000000953674316 -0.49999991059303284 0.0 0 0 0
 2.9000000953674316 -0.49999991059303284 6.0 0 0 0
 2.9000000953674316 -0.2999998927116394 0.0 0 0 0
 2.9000000953674316 -0.2999998927116394 6.199999809265137 0 0 0
 2.9000000953674316 -0.09999990463256836 0.0 0 0 0
 2.9000000953674316 -0.09999990463256836 6.199999809265137 0 0 0
 2.9000000953674316 0.10000009834766388 0.0 0 0 0
 2.9000000953674316 0.10000009834766388 6.400000095367432 0 0 0
 2.9000000953674316 0.3000001013278961 0.0 0 0 0
 2.9000000953674316 0.3000001013278961 6.599999904632568 0 0 0
 2.9000000953674316 0.5000001192092896 0.0 0 0 0
 2.9000000953674316 0.5000001192092896 6.599999904632568 0 0 0
 2.9000000953674316 0.7000001072883606 0.0 0 0 0
 2.9000000953674316 0.7000001072883606 6.599999904632568 0 0 0
 2.9000000953674316 0.9000000953674316 0.0 0 0 0
 2.9000000953674316 0.9000000953674316 6.400000095367432 0 0 0
 2.9000000953674316 1.1000001430511475 0.0 0 0 0
 2.9000000953674316 1.1000001430511475 6.400000095367432 0 0 0
 2.9000000953674316 1.3000000715255737 0.0 0 0 0
 2.9000000953674316 1.3000000715255737 6.0 0 0 0
 2.9000000953674316 1.3000000715255737 6.199999809265137 0 0 0
 2.9000000953674316 1.3000000715255737 6.400000095367432 0 0 0
 2.9000000953674316 1.5000001192092896 0.0 0 0 0
 2.9000000953674316 1.5000001192092896 5.800000190734863 0 0 0
 2.9000000953674316 1.7000000476837158 0.0 0 0 0
 2.9000000953674316 1.7000000476837158 5.599999904632568 0 0 0
 2.9000000953674316 1.7000000476837158 5.800000190734863 0 0 0
 2.9000000953674316 1.9000000953674316 0.0 0 0 0
 2.9000000953674316 1.9000000953674316 5.400000095367432 0 0 0
 2.9000000953674316 2.1000001430511475 0.0 0 0 0
 2.9000000953674316 2.1000001430511475 5.0 0 0 0
 2.9000000953674316 2.1000001430511475 5.199999809265137 0 0 0
 2.9000000953674316 2.3000001907348633 0.0 0 0 0
 2.9000000953674316 2.3000001907348633 4.800000190734863 0 0 0
 2.9000000953674316 2.5 0.0 0 0 0
 2.9000000953674316 2.5 4.400000095367432 0 0 0
 2.9000000953674316 2.5 4.599999904632568 0 0 0
 2.9000000953674316 2.700000047683716 0.0 0 0 0
 2.9000000953674316 2.700000047683716 4.199999809265137 0 0 0
 2.9000000953674316 2.9000000953674316 0.20000000298023224 0 0 0
 2.9000000953674316 2.9000000953674316 4.199999809265137 0 0 0
 2.9000000953674316 3.1000001430511475 0.4000000059604645 0 0 0
 2.9000000953674316 3.1000001430511475 3.799999952316284 0 0 0
 2.9000000953674316 3.1000001430511475 4.0 0 0 0
 2.9000000953674316 3.3000001907348633 0.4000000059604645 0 0 0
 2.9000000953674316 3.3000001907348633 3.5999999046325684 0 0 0
 2.9000000953674316 3.5 0.6000000238418579 0 0 0
 2.9000000953674316 3.5 3.200000047683716 0 0 0
 2.9000000953674316 3.5 3.4000000953674316 0 0 0
 2.9000000953674316 3.5 3.5999999046325684 0 0 0
 2.9000000953674316 3.700000047683716 0.800000011920929 0 0 0
 2.9000000953674316 3.700000047683716 3.0 0 0 0
 2.9000000953674316 3.9000000953674316 1.0 0 0 0
 2.9000000953674316 3.9000000953674316 2.799999952316284 0 0 0
 2.9000000953674316 3.9000000953674316 3.0 0 0 0
 2.9000000953674316 4.099999904632568 1.0 0 0 0
 2.9000000953674316 4.099999904632568 1.2000000476837158 0 0 0
 2.9000000953674316 4.099999904632568 1.399999976158142 0 0 0
 2.9000000953674316 4.099999904632568 1.600000023841858 0 0 0
 2.9000000953674316 4.099999904632568 1.7999999523162842 0 0 0
 2.9000000953674316 4.099999904632568 2.0 0 0 0
 2.9000000953674316 4.099999904632568 2.200000047683716 0 0 0
 2.9000000953674316 4.099999904632568 2.4000000953674316 0 0 0
 2.9000000953674316 4.099999904632568 2.5999999046325684 0 0 0
 2.9000000953674316 4.300000190734863 2.5999999046325684 0 0 0
 3.1000001430511475 -4.900000095367432 1.399999976158142 0 0 0
 3.1000001430511475 -4.900000095367432 1.600000023841858 0 0 0
 3.1000001430511475 -4.900000095367432 1.7999999523162842 0 0 0
 3.1000001430511475 -4.699999809265137 0.20000000298023224 0 0 0
 3.1000001430511475 -4.699999809265137 0.4000000059604645 0 0 0
 3.1000001430511475 -4.699999809265137 0.6000000238418579 0 0 0
 3.1000001430511475 -4.699999809265137 0.800000011920929 0 0 0
 3.1000001430511475 -4.699999809265137 1.0 0 0 0
 3.1000001430511475 -4.699999809265137 1.2000000476837158 0 0 0
 3.1000001430511475 -4.699999809265137 2.0 0 0 0
 3.1000001430511475 -4.699999809265137 2.200000047683716 0 0 0
 3.1000001430511475 -4.699999809265137 2.4000000953674316 0 0 0
 3.1000001430511475 -4.699999809265137 2.5999999046325684 0 0 0
 3.1000001430511475 -4.5 0.0 0 0 0
 3.1000001430511475 -4.5 2.5999999046325684 0 0 0
 3.1000001430511475 -4.299999713897705 0.0 0 0 0
 3.1000001430511475 -4.299999713897705 2.799999952316284 0 0 0
 3.1000001430511475 -4.299999713897705 3.0 0 0 0
 3.1000001430511475 -4.099999904632568 0.0 0 0 0
 3.1000001430511475 -4.099999904632568 3.0 0 0 0
 3.1000001430511475 -3.8999998569488525 0.0 0 0 0
 3.1000001430511475 -3.8999998569488525 3.200000047683716 0 0 0
 3.1000001430511475 -3.6999998092651367 0.0 0 0 0
 3.1000001430511475 -3.6999998092651367 3.4000000953674316 0 0 0
 3.1000001430511475 -3.5 0.0 0 0 0
 3.1000001430511475 -3.5 3.4000000953674316 0 0 0
 3.1000001430511475 -3.299999952316284 0.0 0 0 0
 3.1000001430511475 -3.299999952316284 3.5999999046325684 0 0 0
 3.1000001430511475 -3.0999999046325684 0.0 0 0 0
 3.1000001430511475 -3.0999999046325684 3.799999952316284 0 0 0
 3.1000001430511475 -2.8999998569488525 0.0 0 0 0
 3.1000001430511475 -2.8999998569488525 3.799999952316284 0 0 0
 3.1000001430511475 -2.6999998092651367 0.0 0 0 0
 3.1000001430511475 -2.6999998092651367 4.0 0 0 0
 3.1000001430511475 -2.6999998092651367 4.199999809265137 0 0 0
 3.1000001430511475 -2.6999998092651367 4.400000095367432 0 0 0
 3.1000001430511475 -2.5 0.0 0 0 0
 3.1000001430511475 -2.5 4.400000095367432 0 0 0
 3.1000001430511475 -2.299999952316284 0.0 0 0 0
 3.1000001430511475 -2.299999952316284 4.599999904632568 0 0 0
 3.1000001430511475 -2.0999999046325684 0.0 0 0 0
 3.1000001430511475 -2.0999999046325684 4.800000190734863 0 0 0
 3.1000001430511475 -1.8999998569488525 0.0 0 0 0
 3.1000001430511475 -1.8999998569488525 5.0 0 0 0
 3.1000001430511475 -1.6999999284744263 0.0 0 0 0
 3.1000001430511475 -1.6999999284744263 5.199999809265137 0 0 0
 3.1000001430511475 -1.4999998807907104 0.0 0 0 0
 3.1000001430511475 -1.4999998807907104 5.199999809265137 0 0 0
 3.1000001430511475 -1.2999999523162842 0.0 0 0 0
 3.1000001430511475 -1.2999999523162842 5.400000095367432 0 0 0
 3.1000001430511475 -1.0999999046325684 0.0 0 0 0
 3.1000001430511475 -1.0999999046325684 5.599999904632568 0 0 0
 3.1000001430511475 -0.8999999165534973 0.0 0 0 0
 3.1000001430511475 -0.8999999165534973 5.800000190734863 0 0 0
 3.1000001430511475 -0.6999999284744263 0.0 0 0 0
 3.1000001430511475 -0.6999999284744263 5.800000190734863 0 0 0
 3.1000001430511475 -0.49999991059303284 0.0 0 0 0
 3.1000001430511475 -0.49999991059303284 6.0 0 0 0
 3.1000001430511475 -0.2999998927116394 0.0 0 0 0
 3.1000001430511475 -0.2999998927116394 6.199999809265137 0 0 0
 3.1000001430511475 -0.09999990463256836 0.0 0 0 0
 3.1000001430511475 -0.09999990463256836 6.199999809265137 0 0 0
 3.1000001430511475 0.10000009834766388 0.0 0 0 0
 3.1000001430511475 0.10000009834766388 6.400000095367432 0 0 0
 3.1000001430511475 0.3000001013278961 0.0 0 0 0
 3.1000001430511475 0.3000001013278961 6.599999904632568 0 0 0
 3.1000001430511475 0.3000001013278961 6.800000190734863 0 0 0
 3.1000001430511475 0.5000001192092896 0.0 0 0 0
 3.1000001430511475 0.5000001192092896 6.599999904632568 0 0 0
 3.1000001430511475 0.5000001192092896 6.800000190734863 0 0 0
 3.1000001430511475 0.7000001072883606 0.0 0 0 0
 3.1000001430511475 0.7000001072883606 6.400000095367432 0 0 0
 3.1000001430511475 0.9000000953674316 0.0 0 0 0
 3.1000001430511475 0.9000000953674316 6.400000095367432 0 0 0
 3.1000001430511475 1.1000001430511475 0.0 0 0 0
 3.1000001430511475 1.1000001430511475 6.400000095367432 0 0 0
 3.1000001430511475 1.3000000715255737 0.0 0 0 0
 3.1000001430511475 1.3000000715255737 6.0 0 0 0
 3.1000001430511475 1.3000000715255737 6.199999809265137 0 0 0
 3.1000001430511475 1.5000001192092896 0.0 0 0 0
 3.1000001430511475 1.5000001192092896 5.800000190734863 0 0 0
 3.1000001430511475 1.5000001192092896 6.199999809265137 0 0 0
 3.1000001430511475 1.7000000476837158 0.0 0 0 0
 3.1000001430511475 1.7000000476837158 5.800000190734863 0 0 0
 3.1000001430511475 1.9000000953674316 0.0 0 0 0
 3.1000001430511475 1.9000000953674316 5.400000095367432 0 0 0
 3.1000001430511475 1.9000000953674316 5.599999904632568 0 0 0
 3.1000001430511475 2.1000001430511475 0.0 0 0 0
 3.1000001430511475 2.1000001430511475 5.199999809265137 0 0 0
 3.1000001430511475 2.3000001907348633 0.0 0 0 0
 3.1000001430511475 2.3000001907348633 4.800000190734863 0 0 0
 3.1000001430511475 2.3000001907348633 5.0 0 0 0
 3.1000001430511475 2.3000001907348633 5.199999809265137 0 0 0
 3.1000001430511475 2.5 0.0 0 0 0
 3.1000001430511475 2.5 4.599999904632568 0 0 0
 3.1000001430511475 2.700000047683716 0.0 0 0 0
 3.1000001430511475 2.700000047683716 4.199999809265137 0 0 0
 3.1000001430511475 2.700000047683716 4.400000095367432 0 0 0
 3.1000001430511475 2.700000047683716 4.599999904632568 0 0 0
 3.1000001430511475 2.9000000953674316 0.20000000298023224 0 0 0
 3.1000001430511475 2.9000000953674316 4.0 0 0 0
 3.1000001430511475 3.1000001430511475 0.4000000059604645 0 0 0
 3.1000001430511475 3.1000001430511475 3.5999999046325684 0 0 0
 3.1000001430511475 3.1000001430511475 4.0 0 0 0
 3.1000001430511475 3.3000001907348633 0.4000000059604645 0 0 0
 3.1000001430511475 3.3000001907348633 3.4000000953674316 0 0 0
 3.1000001430511475 3.3000001907348633 3.799999952316284 0 0 0
 3.1000001430511475 3.3000001907348633 4.0 0 0 0
 3.1000001430511475 3.5 0.6000000238418579 0 0 0
 3.1000001430511475 3.5 3.4000000953674316 0 0 0
 3.1000001430511475 3.700000047683716 0.800000011920929 0 0 0
 3.1000001430511475 3.700000047683716 3.0 0 0 0
 3.1000001430511475 3.700000047683716 3.200000047683716 0 0 0
 3.1000001430511475 3.700000047683716 3.4000000953674316 0 0 0
 3.1000001430511475 3.9000000953674316 0.800000011920929 0 0 0
 3.1000001430511475 3.9000000953674316 2.799999952316284 0 0 0
 3.1000001430511475 4.099999904632568 1.0 0 0 0
 3.1000001430511475 4.099999904632568 1.2000000476837158 0 0 0
 3.1000001430511475 4.099999904632568 1.399999976158142 0 0 0
 3.1000001430511475 4.099999904632568 1.600000023841858 0 0 0
 3.1000001430511475 4.099999904632568 1.7999999523162842 0 0 0
 3.1000001430511475 4.099999904632568 2.0 0 0 0
 3.1000001430511475 4.099999904632568 2.5999999046325684 0 0 0
 3.1000001430511475 4.099999904632568 2.799999952316284 0 0 0
 3.1000001430511475 4.300000190734863 2.200000047683716 0 0 0
 3.1000001430511475 4.300000190734863 2.4000000953674316 0 0 0
 3.299999952316284 -4.900000095367432 1.2000000476837158 0 0 0
 3.299999952316284 -4.900000095367432 1.399999976158142 0 0 0
 3.299999952316284 -4.900000095367432 1.600000023841858 0 0 0
 3.299999952316284 -4.900000095367432 1.7999999523162842 0 0 0
 3.299999952316284 -4.900000095367432 2.0 0 0 0
 3.299999952316284 -4.699999809265137 0.0 0 0 0
 3.299999952316284 -4.699999809265137 0.20000000298023224 0 0 0
 3.299999952316284 -4.699999809265137 0.4000000059604645 0 0 0
 3.299999952316284 -4.699999809265137 0.6000000238418579 0 0 0
 3.299999952316284 -4.699999809265137 0.800000011920929 0 0 0
 3.299999952316284 -4.699999809265137 1.0 0 0 0
 3.299999952316284 -4.699999809265137 2.200000047683716 0 0 0
 3.299999952316284 -4.699999809265137 2.4000000953674316 0 0 0
 3.299999952316284 -4.5 0.0 0 0 0
 3.299999952316284 -4.5 2.5999999046325684 0 0 0
 3.299999952316284 -4.5 2.799999952316284 0 0 0
 3.299999952316284 -4.299999713897705 0.0 0 0 0
 3.299999952316284 -4.299999713897705 2.799999952316284 0 0 0
 3.299999952316284 -4.099999904632568 0.0 0 0 0
 3.299999952316284 -4.099999904632568 3.0 0 0 0
 3.299999952316284 -3.8999998569488525 0.0 0 0 0
 3.299999952316284 -3.8999998569488525 3.200000047683716 0 0 0
 3.299999952316284 -3.6999998092651367 0.0 0 0 0
 3.299999952316284 -3.6999998092651367 3.4000000953674316 0 0 0
 3.299999952316284 -3.5 0.0 0 0 0
 3.299999952316284 -3.5 3.4000000953674316 0 0 0
 3.299999952316284 -3.299999952316284 0.0 0 0 0
 3.299999952316284 -3.299999952316284 3.5999999046325684 0 0 0
 3.299999952316284 -3.299999952316284 3.799999952316284 0 0 0
 3.299999952316284 -3.0999999046325684 0.0 0 0 0
 3.299999952316284 -3.0999999046325684 4.0 0 0 0
 3.299999952316284 -2.8999998569488525 0.0 0 0 0
 3.299999952316284 -2.8999998569488525 4.0 0 0 0
 3.299999952316284 -2.8999998569488525 4.199999809265137 0 0 0
 3.299999952316284 -2.6999998092651367 0.0 0 0 0
 3.299999952316284 -2.6999998092651367 4.199999809265137 0 0 0
 3.299999952316284 -2.5 0.0 0 0 0
 3.299999952316284 -2.5 4.400000095367432 0 0 0
 3.299999952316284 -2.5 4.599999904632568 0 0 0
 3.299999952316284 -2.299999952316284 0.0 0 0 0
 3.299999952316284 -2.299999952316284 4.800000190734863 0 0 0
 3.299999952316284 -2.0999999046325684 0.0 0 0 0
 3.299999952316284 -2.0999999046325684 4.800000190734863 0 0 0
 3.299999952316284 -1.8999998569488525 0.0 0 0 0
 3.299999952316284 -1.8999998569488525 5.0 0 0 0
 3.299999952316284 -1.6999999284744263 0.0 0 0 0
 3.299999952316284 -1.6999999284744263 5.199999809265137 0 0 0
 3.299999952316284 -1.4999998807907104 0.0 0 0 0
 3.299999952316284 -1.4999998807907104 5.199999809265137 0 0 0
 3.299999952316284 -1.2999999523162842 0.0 0 0 0
 3.299999952316284 -1.2999999523162842 5.400000095367432 0 0 0
 3.299999952316284 -1.0999999046325684 0.0 0 0 0
 3.299999952316284 -1.0999999046325684 5.599999904632568 0 0 0
 3.299999952316284 -0.8999999165534973 0.0 0 0 0
 3.299999952316284 -0.8999999165534973 5.599999904632568 0 0 0
 3.299999952316284 -0.6999999284744263 0.0 0 0 0
 3.299999952316284 -0.6999999284744263 5.800000190734863 0 0 0
 3.299999952316284 -0.49999991059303284 0.0 0 0 0
 3.299999952316284 -0.49999991059303284 6.0 0 0 0
 3.299999952316284 -0.2999998927116394 0.0 0 0 0
 3.299999952316284 -0.2999998927116394 6.199999809265137 0 0 0
 3.299999952316284 -0.09999990463256836 0.0 0 0 0
 3.299999952316284 -0.09999990463256836 6.400000095367432 0 0 0
 3.299999952316284 0.10000009834766388 0.0 0 0 0
 3.299999952316284 0.10000009834766388 6.599999904632568 0 0 0
 3.299999952316284 0.3000001013278961 0.0 0 0 0
 3.299999952316284 0.3000001013278961 6.599999904632568 0 0 0
 3.299999952316284 0.5000001192092896 0.0 0 0 0
 3.299999952316284 0.5000001192092896 6.800000190734863 0 0 0
 3.299999952316284 0.7000001072883606 0.0 0 0 0
 3.299999952316284 0.7000001072883606 6.599999904632568 0 0 0
 3.299999952316284 0.7000001072883606 6.800000190734863 0 0 0
 3.299999952316284 0.9000000953674316 0.0 0 0 0
 3.299999952316284 0.9000000953674316 6.400000095367432 0 0 0
 3.299999952316284 1.1000001430511475 0.0 0 0 0
 3.299999952316284 1.1000001430511475 6.199999809265137 0 0 0
 3.299999952316284 1.3000000715255737 0.0 0 0 0
 3.299999952316284 1.3000000715255737 6.199999809265137 0 0 0
 3.299999952316284 1.5000001192092896 0.0 0 0 0
 3.299999952316284 1.5000001192092896 5.800000190734863 0 0 0
 3.299999952316284 1.5000001192092896 6.0 0 0 0
 3.299999952316284 1.5000001192092896 6.199999809265137 0 0 0
 3.299999952316284 1.7000000476837158 0.0 0 0 0
 3.299999952316284 1.7000000476837158 5.599999904632568 0 0 0
 3.299999952316284 1.9000000953674316 0.0 0 0 0
 3.299999952316284 1.9000000953674316 5.599999904632568 0 0 0
 3.299999952316284 2.1000001430511475 0.0 0 0 0
 3.299999952316284 2.1000001430511475 5.199999809265137 0 0 0
 3.299999952316284 2.1000001430511475 5.400000095367432 0 0 0
 3.299999952316284 2.1000001430511475 5.599999904632568 0 0 0
 3.299999952316284 2.3000001907348633 0.0 0 0 0
 3.299999952316284 2.3000001907348633 5.0 0 0 0
 3.299999952316284 2.5 0.0 0 0 0
 3.299999952316284 2.5 4.599999904632568 0 0 0
 3.299999952316284 2.5 4.800000190734863 0 0 0
 3.299999952316284 2.5 5.0 0 0 0
 3.299999952316284 2.700000047683716 0.0 0 0 0
 3.299999952316284 2.700000047683716 4.400000095367432 0 0 0
 3.299999952316284 2.9000000953674316 0.20000000298023224 0 0 0
 3.299999952316284 2.9000000953674316 4.199999809265137 0 0 0
 3.299999952316284 2.9000000953674316 4.400000095367432 0 0 0
 3.299999952316284 3.1000001430511475 0.20000000298023224 0 0 0
 3.299999952316284 3.1000001430511475 4.0 0 0 0
 3.299999952316284 3.3000001907348633 0.4000000059604645 0 0 0
 3.299999952316284 3.3000001907348633 3.5999999046325684 0 0 0
 3.299999952316284 3.3000001907348633 3.799999952316284 0 0 0
 3.299999952316284 3.5 0.6000000238418579 0 0 0
 3.299999952316284 3.5 3.4000000953674316 0 0 0
 3.299999952316284 3.5 3.799999952316284 0 0 0
 3.299999952316284 3.700000047683716 0.800000011920929 0 0 0
 3.299999952316284 3.700000047683716 3.200000047683716 0 0 0
 3.299999952316284 3.9000000953674316 0.800000011920929 0 0 0
 3.299999952316284 3.9000000953674316 3.0 0 0 0
 3.299999952316284 3.9000000953674316 3.200000047683716 0 0 0
 3.299999952316284 4.099999904632568 1.0 0 0 0
 3.299999952316284 4.099999904632568 1.2000000476837158 0 0 0
 3.299999952316284 4.099999904632568 1.399999976158142 0 0 0
 3.299999952316284 4.099999904632568 2.799999952316284 0 0 0
 3.299999952316284 4.300000190734863 1.600000023841858 0 0 0
 3.299999952316284 4.300000190734863 1.7999999523162842 0 0 0
 3.299999952316284 4.300000190734863 2.0 0 0 0
 3.299999952316284 4.300000190734863 2.200000047683716 0 0 0
 3.299999952316284 4.300000190734863 2.4000000953674316 0 0 0
 3.299999952316284 4.300000190734863 2.5999999046325684 0 0 0
 3.5 -4.900000095367432 1.0 0 0 0
 3.5 -4.900000095367432 1.2000000476837158 0 0 0
 3.5 -4.900000095367432 1.399999976158142 0 0 0
 3.5 -4.900000095367432 1.600000023841858 0 0 0
 3.5 -4.900000095367432 1.7999999523162842 0 0 0
 3.5 -4.900000095367432 2.0 0 0 0
 3.5 -4.900000095367432 2.200000047683716 0 0 0
 3.5 -4.699999809265137 0.0 0 0 0
 3.5 -4.699999809265137 0.20000000298023224 0 0 0
 3.5 -4.699999809265137 0.4000000059604645 0 0 0
 3.5 -4.699999809265137 0.6000000238418579 0 0 0
 3.5 -4.699999809265137 1.0 0 0 0
 3.5 -4.699999809265137 2.200000047683716 0 0 0
 3.5 -4.5 0.0 0 0 0
 3.5 -4.5 0.800000011920929 0 0 0
 3.5 -4.5 2.4000000953674316 0 0 0
 3.5 -4.5 2.5999999046325684 0 0 0
 3.5 -4.299999713897705 0.0 0 0 0
 3.5 -4.299999713897705 2.799999952316284 0 0 0
 3.5 -4.099999904632568 0.0 0 0 0
 3.5 -4.099999904632568 3.0 0 0 0
 3.5 -3.8999998569488525 0.0 0 0 0
 3.5 -3.8999998569488525 3.200000047683716 0 0 0
 3.5 -3.8999998569488525 3.4000000953674316 0 0 0
 3.5 -3.6999998092651367 0.0 0 0 0
 3.5 -3.6999998092651367 3.5999999046325684 0 0 0
