ply
format ascii 1.0
element vertex 896
property float x
property float y
property float z
property uchar red
property uchar green
property uchar blue
end_header
 11.5 2.5 5.800000190734863 0 0 0
 11.5 2.5 6.0 0 0 0
 11.5 2.6999998092651367 0.0 0 0 0
 11.5 2.6999998092651367 5.199999809265137 0 0 0
 11.5 2.6999998092651367 5.400000095367432 0 0 0
 11.5 2.8999998569488525 0.0 0 0 0
 11.5 2.8999998569488525 4.599999904632568 0 0 0
 11.5 2.8999998569488525 4.800000190734863 0 0 0
 11.5 2.8999998569488525 5.0 0 0 0
 11.5 3.0999999046325684 0.0 0 0 0
 11.5 3.0999999046325684 4.0 0 0 0
 11.5 3.0999999046325684 4.199999809265137 0 0 0
 11.5 3.0999999046325684 4.400000095367432 0 0 0
 11.5 3.299999952316284 0.0 0 0 0
 11.5 3.299999952316284 3.4000000953674316 0 0 0
 11.5 3.299999952316284 3.5999999046325684 0 0 0
 11.5 3.299999952316284 3.799999952316284 0 0 0
 11.5 3.5 0.0 0 0 0
 11.5 3.5 3.0 0 0 0
 11.5 3.5 3.200000047683716 0 0 0
 11.5 3.6999998092651367 0.0 0 0 0
 11.5 3.6999998092651367 2.4000000953674316 0 0 0
 11.5 3.6999998092651367 2.5999999046325684 0 0 0
 11.5 3.6999998092651367 2.799999952316284 0 0 0
 11.5 3.8999998569488525 0.0 0 0 0
 11.5 3.8999998569488525 2.0 0 0 0
 11.5 3.8999998569488525 2.200000047683716 0 0 0
 11.5 4.099999904632568 0.0 0 0 0
 11.5 4.099999904632568 1.2000000476837158 0 0 0
 11.5 4.099999904632568 1.399999976158142 0 0 0
 11.5 4.099999904632568 1.600000023841858 0 0 0
 11.5 4.099999904632568 1.7999999523162842 0 0 0
 11.5 4.299999713897705 0.0 0 0 0
 11.5 4.299999713897705 0.20000000298023224 0 0 0
 11.5 4.299999713897705 0.4000000059604645 0 0 0
 11.5 4.299999713897705 0.800000011920929 0 0 0
 11.5 4.299999713897705 1.0 0 0 0
 11.5 4.5 0.6000000238418579 0 0 0
 11.699999809265137 -3.700000047683716 0.800000011920929 0 0 0
 11.699999809265137 -3.700000047683716 1.0 0 0 0
 11.699999809265137 -3.700000047683716 1.2000000476837158 0 0 0
 11.699999809265137 -3.700000047683716 1.399999976158142 0 0 0
 11.699999809265137 -3.700000047683716 1.600000023841858 0 0 0
 11.699999809265137 -3.5 0.4000000059604645 0 0 0
 11.699999809265137 -3.5 0.6000000238418579 0 0 0
 11.699999809265137 -3.5 1.7999999523162842 0 0 0
 11.699999809265137 -3.5 2.0 0 0 0
 11.699999809265137 -3.3000001907348633 0.0 0 0 0
 11.699999809265137 -3.3000001907348633 0.20000000298023224 0 0 0
 11.699999809265137 -3.3000001907348633 2.200000047683716 0 0 0
 11.699999809265137 -3.3000001907348633 2.4000000953674316 0 0 0
 11.699999809265137 -3.1000001430511475 0.0 0 0 0
 11.699999809265137 -3.1000001430511475 2.5999999046325684 0 0 0
 11.699999809265137 -3.1000001430511475 2.799999952316284 0 0 0
 11.699999809265137 -2.9000000953674316 0.0 0 0 0
 11.699999809265137 -2.9000000953674316 3.0 0 0 0
 11.699999809265137 -2.9000000953674316 3.200000047683716 0 0 0
 11.699999809265137 -2.700000047683716 0.0 0 0 0
 11.699999809265137 -2.700000047683716 3.4000000953674316 0 0 0
 11.699999809265137 -2.700000047683716 3.5999999046325684 0 0 0
 11.699999809265137 -2.5 0.0 0 0 0
 11.699999809265137 -2.5 3.799999952316284 0 0 0
 11.699999809265137 -2.5 4.0 0 0 0
 11.699999809265137 -2.3000001907348633 0.0 0 0 0
 11.699999809265137 -2.3000001907348633 4.199999809265137 0 0 0
 11.699999809265137 -2.3000001907348633 4.400000095367432 0 0 0
 11.699999809265137 -2.3000001907348633 4.599999904632568 0 0 0
 11.699999809265137 -2.1000001430511475 0.0 0 0 0
 11.699999809265137 -2.1000001430511475 4.800000190734863 0 0 0
 11.699999809265137 -2.1000001430511475 5.0 0 0 0
 11.699999809265137 -1.9000000953674316 0.0 0 0 0
 11.699999809265137 -1.9000000953674316 5.199999809265137 0 0 0
 11.699999809265137 -1.7000000476837158 0.0 0 0 0
 11.699999809265137 -1.7000000476837158 5.400000095367432 0 0 0
 11.699999809265137 -1.7000000476837158 5.599999904632568 0 0 0
 11.699999809265137 -1.5000001192092896 0.0 0 0 0
 11.699999809265137 -1.5000001192092896 5.800000190734863 0 0 0
 11.699999809265137 -1.5000001192092896 6.0 0 0 0
 11.699999809265137 -1.5000001192092896 6.199999809265137 0 0 0
 11.699999809265137 -1.3000000715255737 0.0 0 0 0
 11.699999809265137 -1.3000000715255737 6.400000095367432 0 0 0
 11.699999809265137 -1.1000001430511475 0.0 0 0 0
 11.699999809265137 -1.1000001430511475 6.599999904632568 0 0 0
 11.699999809265137 -1.1000001430511475 6.800000190734863 0 0 0
 11.699999809265137 -0.9000000953674316 0.0 0 0 0
 11.699999809265137 -0.9000000953674316 7.0 0 0 0
 11.699999809265137 -0.9000000953674316 7.199999809265137 0 0 0
 11.699999809265137 -0.7000001072883606 0.0 0 0 0
 11.699999809265137 -0.7000001072883606 7.400000095367432 0 0 0
 11.699999809265137 -0.7000001072883606 7.599999904632568 0 0 0
 11.699999809265137 -0.7000001072883606 7.800000190734863 0 0 0
 11.699999809265137 -0.5000001192092896 0.0 0 0 0
 11.699999809265137 -0.5000001192092896 8.0 0 0 0
 11.699999809265137 -0.3000001013278961 0.0 0 0 0
 11.699999809265137 -0.3000001013278961 8.199999809265137 0 0 0
 11.699999809265137 -0.3000001013278961 8.399999618530273 0 0 0
 11.699999809265137 -0.10000009834766388 0.0 0 0 0
 11.699999809265137 -0.10000009834766388 8.600000381469727 0 0 0
 11.699999809265137 -0.10000009834766388 8.800000190734863 0 0 0
 11.699999809265137 0.09999990463256836 0.0 0 0 0
 11.699999809265137 0.09999990463256836 9.0 0 0 0
 11.699999809265137 0.2999998927116394 0.0 0 0 0
 11.699999809265137 0.2999998927116394 9.199999809265137 0 0 0
 11.699999809265137 0.2999998927116394 9.399999618530273 0 0 0
 11.699999809265137 0.49999991059303284 0.0 0 0 0
 11.699999809265137 0.49999991059303284 9.600000381469727 0 0 0
 11.699999809265137 0.49999991059303284 9.800000190734863 0 0 0
 11.699999809265137 0.49999991059303284 10.0 0 0 0
 11.699999809265137 0.6999999284744263 0.0 0 0 0
 11.699999809265137 0.6999999284744263 10.199999809265137 0 0 0
 11.699999809265137 0.6999999284744263 10.399999618530273 0 0 0
 11.699999809265137 0.8999999165534973 0.0 0 0 0
 11.699999809265137 0.8999999165534973 9.800000190734863 0 0 0
 11.699999809265137 0.8999999165534973 10.0 0 0 0
 11.699999809265137 0.8999999165534973 10.199999809265137 0 0 0
 11.699999809265137 1.0999999046325684 0.0 0 0 0
 11.699999809265137 1.0999999046325684 9.199999809265137 0 0 0
 11.699999809265137 1.0999999046325684 9.399999618530273 0 0 0
 11.699999809265137 1.0999999046325684 9.600000381469727 0 0 0
 11.699999809265137 1.2999999523162842 0.0 0 0 0
 11.699999809265137 1.2999999523162842 8.600000381469727 0 0 0
 11.699999809265137 1.2999999523162842 8.800000190734863 0 0 0
 11.699999809265137 1.2999999523162842 9.0 0 0 0
 11.699999809265137 1.4999998807907104 0.0 0 0 0
 11.699999809265137 1.4999998807907104 8.199999809265137 0 0 0
 11.699999809265137 1.4999998807907104 8.399999618530273 0 0 0
 11.699999809265137 1.6999999284744263 0.0 0 0 0
 11.699999809265137 1.6999999284744263 7.599999904632568 0 0 0
 11.699999809265137 1.6999999284744263 7.800000190734863 0 0 0
 11.699999809265137 1.6999999284744263 8.0 0 0 0
 11.699999809265137 1.8999998569488525 0.0 0 0 0
 11.699999809265137 1.8999998569488525 7.199999809265137 0 0 0
 11.699999809265137 1.8999998569488525 7.400000095367432 0 0 0
 11.699999809265137 2.0999999046325684 0.0 0 0 0
 11.699999809265137 2.0999999046325684 6.400000095367432 0 0 0
 11.699999809265137 2.0999999046325684 6.599999904632568 0 0 0
 11.699999809265137 2.0999999046325684 6.800000190734863 0 0 0
 11.699999809265137 2.0999999046325684 7.0 0 0 0
 11.699999809265137 2.299999952316284 0.0 0 0 0
 11.699999809265137 2.299999952316284 6.0 0 0 0
 11.699999809265137 2.299999952316284 6.199999809265137 0 0 0
 11.699999809265137 2.5 0.0 0 0 0
 11.699999809265137 2.5 5.599999904632568 0 0 0
 11.699999809265137 2.5 5.800000190734863 0 0 0
 11.699999809265137 2.6999998092651367 0.0 0 0 0
 11.699999809265137 2.6999998092651367 5.0 0 0 0
 11.699999809265137 2.6999998092651367 5.199999809265137 0 0 0
 11.699999809265137 2.6999998092651367 5.400000095367432 0 0 0
 11.699999809265137 2.8999998569488525 0.0 0 0 0
 11.699999809265137 2.8999998569488525 4.599999904632568 0 0 0
 11.699999809265137 2.8999998569488525 4.800000190734863 0 0 0
 11.699999809265137 3.0999999046325684 0.0 0 0 0
 11.699999809265137 3.0999999046325684 3.799999952316284 0 0 0
 11.699999809265137 3.0999999046325684 4.0 0 0 0
 11.699999809265137 3.0999999046325684 4.199999809265137 0 0 0
 11.699999809265137 3.0999999046325684 4.400000095367432 0 0 0
 11.699999809265137 3.299999952316284 0.0 0 0 0
 11.699999809265137 3.299999952316284 3.4000000953674316 0 0 0
 11.699999809265137 3.299999952316284 3.5999999046325684 0 0 0
 11.699999809265137 3.5 0.0 0 0 0
 11.699999809265137 3.5 2.799999952316284 0 0 0
 11.699999809265137 3.5 3.0 0 0 0
 11.699999809265137 3.5 3.200000047683716 0 0 0
 11.699999809265137 3.6999998092651367 0.0 0 0 0
 11.699999809265137 3.6999998092651367 2.4000000953674316 0 0 0
 11.699999809265137 3.6999998092651367 2.5999999046325684 0 0 0
 11.699999809265137 3.8999998569488525 0.0 0 0 0
 11.699999809265137 3.8999998569488525 1.600000023841858 0 0 0
 11.699999809265137 3.8999998569488525 1.7999999523162842 0 0 0
 11.699999809265137 3.8999998569488525 2.0 0 0 0
 11.699999809265137 3.8999998569488525 2.200000047683716 0 0 0
 11.699999809265137 4.099999904632568 0.0 0 0 0
 11.699999809265137 4.099999904632568 1.2000000476837158 0 0 0
 11.699999809265137 4.099999904632568 1.399999976158142 0 0 0
 11.699999809265137 4.299999713897705 0.0 0 0 0
 11.699999809265137 4.299999713897705 0.20000000298023224 0 0 0
 11.699999809265137 4.299999713897705 0.4000000059604645 0 0 0
 11.699999809265137 4.299999713897705 0.6000000238418579 0 0 0
 11.699999809265137 4.299999713897705 0.800000011920929 0 0 0
 11.699999809265137 4.299999713897705 1.0 0 0 0
 11.899999618530273 -3.700000047683716 0.800000011920929 0 0 0
 11.899999618530273 -3.700000047683716 1.0 0 0 0
 11.899999618530273 -3.700000047683716 1.2000000476837158 0 0 0
 11.899999618530273 -3.700000047683716 1.399999976158142 0 0 0
 11.899999618530273 -3.700000047683716 1.600000023841858 0 0 0
 11.899999618530273 -3.700000047683716 1.7999999523162842 0 0 0
 11.899999618530273 -3.5 0.4000000059604645 0 0 0
 11.899999618530273 -3.5 0.6000000238418579 0 0 0
 11.899999618530273 -3.5 2.0 0 0 0
 11.899999618530273 -3.3000001907348633 0.0 0 0 0
 11.899999618530273 -3.3000001907348633 0.20000000298023224 0 0 0
 11.899999618530273 -3.3000001907348633 2.200000047683716 0 0 0
 11.899999618530273 -3.3000001907348633 2.4000000953674316 0 0 0
 11.899999618530273 -3.1000001430511475 0.0 0 0 0
 11.899999618530273 -3.1000001430511475 2.5999999046325684 0 0 0
 11.899999618530273 -3.1000001430511475 2.799999952316284 0 0 0
 11.899999618530273 -2.9000000953674316 0.0 0 0 0
 11.899999618530273 -2.9000000953674316 3.0 0 0 0
 11.899999618530273 -2.9000000953674316 3.200000047683716 0 0 0
 11.899999618530273 -2.9000000953674316 3.4000000953674316 0 0 0
 11.899999618530273 -2.700000047683716 0.0 0 0 0
 11.899999618530273 -2.700000047683716 3.5999999046325684 0 0 0
 11.899999618530273 -2.700000047683716 3.799999952316284 0 0 0
 11.899999618530273 -2.5 0.0 0 0 0
 11.899999618530273 -2.5 4.0 0 0 0
 11.899999618530273 -2.5 4.199999809265137 0 0 0
 11.899999618530273 -2.3000001907348633 0.0 0 0 0
 11.899999618530273 -2.3000001907348633 4.400000095367432 0 0 0
 11.899999618530273 -2.1000001430511475 0.0 0 0 0
 11.899999618530273 -2.1000001430511475 4.599999904632568 0 0 0
 11.899999618530273 -2.1000001430511475 4.800000190734863 0 0 0
 11.899999618530273 -2.1000001430511475 5.0 0 0 0
 11.899999618530273 -1.9000000953674316 0.0 0 0 0
 11.899999618530273 -1.9000000953674316 5.199999809265137 0 0 0
 11.899999618530273 -1.9000000953674316 5.400000095367432 0 0 0
 11.899999618530273 -1.7000000476837158 0.0 0 0 0
 11.899999618530273 -1.7000000476837158 5.599999904632568 0 0 0
 11.899999618530273 -1.5000001192092896 0.0 0 0 0
 11.899999618530273 -1.5000001192092896 5.800000190734863 0 0 0
 11.899999618530273 -1.5000001192092896 6.0 0 0 0
 11.899999618530273 -1.3000000715255737 0.0 0 0 0
 11.899999618530273 -1.3000000715255737 6.199999809265137 0 0 0
 11.899999618530273 -1.3000000715255737 6.400000095367432 0 0 0
 11.899999618530273 -1.3000000715255737 6.599999904632568 0 0 0
 11.899999618530273 -1.1000001430511475 0.0 0 0 0
 11.899999618530273 -1.1000001430511475 6.800000190734863 0 0 0
 11.899999618530273 -1.1000001430511475 7.0 0 0 0
 11.899999618530273 -0.9000000953674316 0.0 0 0 0
 11.899999618530273 -0.9000000953674316 7.199999809265137 0 0 0
 11.899999618530273 -0.7000001072883606 0.0 0 0 0
 11.899999618530273 -0.7000001072883606 7.400000095367432 0 0 0
 11.899999618530273 -0.7000001072883606 7.599999904632568 0 0 0
 11.899999618530273 -0.5000001192092896 0.0 0 0 0
 11.899999618530273 -0.5000001192092896 7.800000190734863 0 0 0
 11.899999618530273 -0.5000001192092896 8.0 0 0 0
 11.899999618530273 -0.3000001013278961 0.0 0 0 0
 11.899999618530273 -0.3000001013278961 8.199999809265137 0 0 0
 11.899999618530273 -0.3000001013278961 8.399999618530273 0 0 0
 11.899999618530273 -0.10000009834766388 0.0 0 0 0
 11.899999618530273 -0.10000009834766388 8.600000381469727 0 0 0
 11.899999618530273 -0.10000009834766388 8.800000190734863 0 0 0
 11.899999618530273 0.09999990463256836 0.0 0 0 0
 11.899999618530273 0.09999990463256836 9.0 0 0 0
 11.899999618530273 0.09999990463256836 9.199999809265137 0 0 0
 11.899999618530273 0.2999998927116394 0.0 0 0 0
 11.899999618530273 0.2999998927116394 9.399999618530273 0 0 0
 11.899999618530273 0.2999998927116394 9.600000381469727 0 0 0
 11.899999618530273 0.49999991059303284 0.0 0 0 0
 11.899999618530273 0.49999991059303284 9.800000190734863 0 0 0
 11.899999618530273 0.49999991059303284 10.0 0 0 0
 11.899999618530273 0.6999999284744263 0.0 0 0 0
 11.899999618530273 0.6999999284744263 10.199999809265137 0 0 0
 11.899999618530273 0.6999999284744263 10.399999618530273 0 0 0
 11.899999618530273 0.8999999165534973 0.0 0 0 0
 11.899999618530273 0.8999999165534973 9.800000190734863 0 0 0
 11.899999618530273 0.8999999165534973 10.0 0 0 0
 11.899999618530273 1.0999999046325684 0.0 0 0 0
 11.899999618530273 1.0999999046325684 9.199999809265137 0 0 0
 11.899999618530273 1.0999999046325684 9.399999618530273 0 0 0
 11.899999618530273 1.0999999046325684 9.600000381469727 0 0 0
 11.899999618530273 1.2999999523162842 0.0 0 0 0
 11.899999618530273 1.2999999523162842 8.600000381469727 0 0 0
 11.899999618530273 1.2999999523162842 8.800000190734863 0 0 0
 11.899999618530273 1.2999999523162842 9.0 0 0 0
 11.899999618530273 1.4999998807907104 0.0 0 0 0
 11.899999618530273 1.4999998807907104 8.0 0 0 0
 11.899999618530273 1.4999998807907104 8.199999809265137 0 0 0
 11.899999618530273 1.4999998807907104 8.399999618530273 0 0 0
 11.899999618530273 1.6999999284744263 0.0 0 0 0
 11.899999618530273 1.6999999284744263 7.599999904632568 0 0 0
 11.899999618530273 1.6999999284744263 7.800000190734863 0 0 0
 11.899999618530273 1.8999998569488525 0.0 0 0 0
 11.899999618530273 1.8999998569488525 7.0 0 0 0
 11.899999618530273 1.8999998569488525 7.199999809265137 0 0 0
 11.899999618530273 1.8999998569488525 7.400000095367432 0 0 0
 11.899999618530273 2.0999999046325684 0.0 0 0 0
 11.899999618530273 2.0999999046325684 6.599999904632568 0 0 0
 11.899999618530273 2.0999999046325684 6.800000190734863 0 0 0
 11.899999618530273 2.299999952316284 0.0 0 0 0
 11.899999618530273 2.299999952316284 5.800000190734863 0 0 0
 11.899999618530273 2.299999952316284 6.0 0 0 0
 11.899999618530273 2.299999952316284 6.199999809265137 0 0 0
 11.899999618530273 2.299999952316284 6.400000095367432 0 0 0
 11.899999618530273 2.5 0.0 0 0 0
 11.899999618530273 2.5 5.400000095367432 0 0 0
 11.899999618530273 2.5 5.599999904632568 0 0 0
 11.899999618530273 2.6999998092651367 0.0 0 0 0
 11.899999618530273 2.6999998092651367 4.800000190734863 0 0 0
 11.899999618530273 2.6999998092651367 5.0 0 0 0
 11.899999618530273 2.6999998092651367 5.199999809265137 0 0 0
 11.899999618530273 2.8999998569488525 0.0 0 0 0
 11.899999618530273 2.8999998569488525 4.400000095367432 0 0 0
 11.899999618530273 2.8999998569488525 4.599999904632568 0 0 0
 11.899999618530273 3.0999999046325684 0.0 0 0 0
 11.899999618530273 3.0999999046325684 3.5999999046325684 0 0 0
 11.899999618530273 3.0999999046325684 3.799999952316284 0 0 0
 11.899999618530273 3.0999999046325684 4.0 0 0 0
 11.899999618530273 3.0999999046325684 4.199999809265137 0 0 0
 11.899999618530273 3.299999952316284 0.0 0 0 0
 11.899999618530273 3.299999952316284 3.200000047683716 0 0 0
 11.899999618530273 3.299999952316284 3.4000000953674316 0 0 0
 11.899999618530273 3.5 0.0 0 0 0
 11.899999618530273 3.5 2.799999952316284 0 0 0
 11.899999618530273 3.5 3.0 0 0 0
 11.899999618530273 3.6999998092651367 0.0 0 0 0
 11.899999618530273 3.6999998092651367 2.200000047683716 0 0 0
 11.899999618530273 3.6999998092651367 2.4000000953674316 0 0 0
 11.899999618530273 3.6999998092651367 2.5999999046325684 0 0 0
 11.899999618530273 3.8999998569488525 0.0 0 0 0
 11.899999618530273 3.8999998569488525 1.7999999523162842 0 0 0
 11.899999618530273 3.8999998569488525 2.0 0 0 0
 11.899999618530273 4.099999904632568 0.0 0 0 0
 11.899999618530273 4.099999904632568 0.20000000298023224 0 0 0
 11.899999618530273 4.099999904632568 1.0 0 0 0
 11.899999618530273 4.099999904632568 1.2000000476837158 0 0 0
 11.899999618530273 4.099999904632568 1.399999976158142 0 0 0
 11.899999618530273 4.099999904632568 1.600000023841858 0 0 0
 11.899999618530273 4.299999713897705 0.4000000059604645 0 0 0
 11.899999618530273 4.299999713897705 0.6000000238418579 0 0 0
 11.899999618530273 4.299999713897705 0.800000011920929 0 0 0
 12.100000381469727 -3.700000047683716 0.800000011920929 0 0 0
 12.100000381469727 -3.700000047683716 1.0 0 0 0
 12.100000381469727 -3.700000047683716 1.2000000476837158 0 0 0
 12.100000381469727 -3.700000047683716 1.399999976158142 0 0 0
 12.100000381469727 -3.700000047683716 1.600000023841858 0 0 0
 12.100000381469727 -3.5 0.4000000059604645 0 0 0
 12.100000381469727 -3.5 0.6000000238418579 0 0 0
 12.100000381469727 -3.5 1.7999999523162842 0 0 0
 12.100000381469727 -3.5 2.0 0 0 0
 12.100000381469727 -3.5 2.200000047683716 0 0 0
 12.100000381469727 -3.3000001907348633 0.0 0 0 0
 12.100000381469727 -3.3000001907348633 0.20000000298023224 0 0 0
 12.100000381469727 -3.3000001907348633 2.4000000953674316 0 0 0
 12.100000381469727 -3.3000001907348633 2.5999999046325684 0 0 0
 12.100000381469727 -3.1000001430511475 0.0 0 0 0
 12.100000381469727 -3.1000001430511475 2.799999952316284 0 0 0
 12.100000381469727 -3.1000001430511475 3.0 0 0 0
 12.100000381469727 -2.9000000953674316 0.0 0 0 0
 12.100000381469727 -2.9000000953674316 3.200000047683716 0 0 0
 12.100000381469727 -2.9000000953674316 3.4000000953674316 0 0 0
 12.100000381469727 -2.700000047683716 0.0 0 0 0
 12.100000381469727 -2.700000047683716 3.5999999046325684 0 0 0
 12.100000381469727 -2.700000047683716 3.799999952316284 0 0 0
 12.100000381469727 -2.5 0.0 0 0 0
 12.100000381469727 -2.5 4.0 0 0 0
 12.100000381469727 -2.5 4.199999809265137 0 0 0
 12.100000381469727 -2.3000001907348633 0.0 0 0 0
 12.100000381469727 -2.3000001907348633 4.400000095367432 0 0 0
 12.100000381469727 -2.3000001907348633 4.599999904632568 0 0 0
 12.100000381469727 -2.1000001430511475 0.0 0 0 0
 12.100000381469727 -2.1000001430511475 4.800000190734863 0 0 0
 12.100000381469727 -1.9000000953674316 0.0 0 0 0
 12.100000381469727 -1.9000000953674316 5.0 0 0 0
 12.100000381469727 -1.9000000953674316 5.199999809265137 0 0 0
 12.100000381469727 -1.9000000953674316 5.400000095367432 0 0 0
 12.100000381469727 -1.7000000476837158 0.0 0 0 0
 12.100000381469727 -1.7000000476837158 5.599999904632568 0 0 0
 12.100000381469727 -1.7000000476837158 5.800000190734863 0 0 0
 12.100000381469727 -1.5000001192092896 0.0 0 0 0
 12.100000381469727 -1.5000001192092896 6.0 0 0 0
 12.100000381469727 -1.5000001192092896 6.199999809265137 0 0 0
 12.100000381469727 -1.3000000715255737 0.0 0 0 0
 12.100000381469727 -1.3000000715255737 6.400000095367432 0 0 0
 12.100000381469727 -1.1000001430511475 0.0 0 0 0
 12.100000381469727 -1.1000001430511475 6.599999904632568 0 0 0
 12.100000381469727 -1.1000001430511475 6.800000190734863 0 0 0
 12.100000381469727 -1.1000001430511475 7.0 0 0 0
 12.100000381469727 -0.9000000953674316 0.0 0 0 0
 12.100000381469727 -0.9000000953674316 7.199999809265137 0 0 0
 12.100000381469727 -0.9000000953674316 7.400000095367432 0 0 0
 12.100000381469727 -0.7000001072883606 0.0 0 0 0
 12.100000381469727 -0.7000001072883606 7.599999904632568 0 0 0
 12.100000381469727 -0.5000001192092896 0.0 0 0 0
 12.100000381469727 -0.5000001192092896 7.800000190734863 0 0 0
 12.100000381469727 -0.5000001192092896 8.0 0 0 0
 12.100000381469727 -0.3000001013278961 0.0 0 0 0
 12.100000381469727 -0.3000001013278961 8.199999809265137 0 0 0
 12.100000381469727 -0.3000001013278961 8.399999618530273 0 0 0
 12.100000381469727 -0.3000001013278961 8.600000381469727 0 0 0
 12.100000381469727 -0.10000009834766388 0.0 0 0 0
 12.100000381469727 -0.10000009834766388 8.800000190734863 0 0 0
 12.100000381469727 0.09999990463256836 0.0 0 0 0
 12.100000381469727 0.09999990463256836 9.0 0 0 0
 12.100000381469727 0.09999990463256836 9.199999809265137 0 0 0
 12.100000381469727 0.2999998927116394 0.0 0 0 0
 12.100000381469727 0.2999998927116394 9.399999618530273 0 0 0
 12.100000381469727 0.2999998927116394 9.600000381469727 0 0 0
 12.100000381469727 0.49999991059303284 0.0 0 0 0
 12.100000381469727 0.49999991059303284 9.800000190734863 0 0 0
 12.100000381469727 0.49999991059303284 10.0 0 0 0
 12.100000381469727 0.6999999284744263 0.0 0 0 0
 12.100000381469727 0.6999999284744263 10.199999809265137 0 0 0
 12.100000381469727 0.6999999284744263 10.399999618530273 0 0 0
 12.100000381469727 0.8999999165534973 0.0 0 0 0
 12.100000381469727 0.8999999165534973 9.600000381469727 0 0 0
 12.100000381469727 0.8999999165534973 9.800000190734863 0 0 0
 12.100000381469727 0.8999999165534973 10.0 0 0 0
 12.100000381469727 1.0999999046325684 0.0 0 0 0
 12.100000381469727 1.0999999046325684 9.199999809265137 0 0 0
 12.100000381469727 1.0999999046325684 9.399999618530273 0 0 0
 12.100000381469727 1.2999999523162842 0.0 0 0 0
 12.100000381469727 1.2999999523162842 8.600000381469727 0 0 0
 12.100000381469727 1.2999999523162842 8.800000190734863 0 0 0
 12.100000381469727 1.2999999523162842 9.0 0 0 0
 12.100000381469727 1.4999998807907104 0.0 0 0 0
 12.100000381469727 1.4999998807907104 8.0 0 0 0
 12.100000381469727 1.4999998807907104 8.199999809265137 0 0 0
 12.100000381469727 1.4999998807907104 8.399999618530273 0 0 0
 12.100000381469727 1.6999999284744263 0.0 0 0 0
 12.100000381469727 1.6999999284744263 7.400000095367432 0 0 0
 12.100000381469727 1.6999999284744263 7.599999904632568 0 0 0
 12.100000381469727 1.6999999284744263 7.800000190734863 0 0 0
 12.100000381469727 1.8999998569488525 0.0 0 0 0
 12.100000381469727 1.8999998569488525 7.0 0 0 0
 12.100000381469727 1.8999998569488525 7.199999809265137 0 0 0
 12.100000381469727 2.0999999046325684 0.0 0 0 0
 12.100000381469727 2.0999999046325684 6.199999809265137 0 0 0
 12.100000381469727 2.0999999046325684 6.400000095367432 0 0 0
 12.100000381469727 2.0999999046325684 6.599999904632568 0 0 0
 12.100000381469727 2.0999999046325684 6.800000190734863 0 0 0
 12.100000381469727 2.299999952316284 0.0 0 0 0
 12.100000381469727 2.299999952316284 5.800000190734863 0 0 0
 12.100000381469727 2.299999952316284 6.0 0 0 0
 12.100000381469727 2.5 0.0 0 0 0
 12.100000381469727 2.5 5.199999809265137 0 0 0
 12.100000381469727 2.5 5.400000095367432 0 0 0
 12.100000381469727 2.5 5.599999904632568 0 0 0
 12.100000381469727 2.6999998092651367 0.0 0 0 0
 12.100000381469727 2.6999998092651367 4.800000190734863 0 0 0
 12.100000381469727 2.6999998092651367 5.0 0 0 0
 12.100000381469727 2.8999998569488525 0.0 0 0 0
 12.100000381469727 2.8999998569488525 4.199999809265137 0 0 0
 12.100000381469727 2.8999998569488525 4.400000095367432 0 0 0
 12.100000381469727 2.8999998569488525 4.599999904632568 0 0 0
 12.100000381469727 3.0999999046325684 0.0 0 0 0
 12.100000381469727 3.0999999046325684 3.799999952316284 0 0 0
 12.100000381469727 3.0999999046325684 4.0 0 0 0
 12.100000381469727 3.299999952316284 0.0 0 0 0
 12.100000381469727 3.299999952316284 3.0 0 0 0
 12.100000381469727 3.299999952316284 3.200000047683716 0 0 0
 12.100000381469727 3.299999952316284 3.4000000953674316 0 0 0
 12.100000381469727 3.299999952316284 3.5999999046325684 0 0 0
 12.100000381469727 3.5 0.0 0 0 0
 12.100000381469727 3.5 2.5999999046325684 0 0 0
 12.100000381469727 3.5 2.799999952316284 0 0 0
 12.100000381469727 3.6999998092651367 0.0 0 0 0
 12.100000381469727 3.6999998092651367 2.0 0 0 0
 12.100000381469727 3.6999998092651367 2.200000047683716 0 0 0
 12.100000381469727 3.6999998092651367 2.4000000953674316 0 0 0
 12.100000381469727 3.8999998569488525 0.0 0 0 0
 12.100000381469727 3.8999998569488525 1.399999976158142 0 0 0
 12.100000381469727 3.8999998569488525 1.600000023841858 0 0 0
 12.100000381469727 3.8999998569488525 1.7999999523162842 0 0 0
 12.100000381469727 4.099999904632568 0.0 0 0 0
 12.100000381469727 4.099999904632568 0.20000000298023224 0 0 0
 12.100000381469727 4.099999904632568 0.800000011920929 0 0 0
 12.100000381469727 4.099999904632568 1.0 0 0 0
 12.100000381469727 4.099999904632568 1.2000000476837158 0 0 0
 12.100000381469727 4.299999713897705 0.4000000059604645 0 0 0
 12.100000381469727 4.299999713897705 0.6000000238418579 0 0 0
 12.300000190734863 -3.9000000953674316 1.399999976158142 0 0 0
 12.300000190734863 -3.700000047683716 0.800000011920929 0 0 0
 12.300000190734863 -3.700000047683716 1.0 0 0 0
 12.300000190734863 -3.700000047683716 1.2000000476837158 0 0 0
 12.300000190734863 -3.700000047683716 1.600000023841858 0 0 0
 12.300000190734863 -3.700000047683716 1.7999999523162842 0 0 0
 12.300000190734863 -3.5 0.20000000298023224 0 0 0
 12.300000190734863 -3.5 0.4000000059604645 0 0 0
 12.300000190734863 -3.5 0.6000000238418579 0 0 0
 12.300000190734863 -3.5 2.0 0 0 0
 12.300000190734863 -3.5 2.200000047683716 0 0 0
 12.300000190734863 -3.3000001907348633 0.0 0 0 0
 12.300000190734863 -3.3000001907348633 2.4000000953674316 0 0 0
 12.300000190734863 -3.3000001907348633 2.5999999046325684 0 0 0
 12.300000190734863 -3.1000001430511475 0.0 0 0 0
 12.300000190734863 -3.1000001430511475 2.799999952316284 0 0 0
 12.300000190734863 -3.1000001430511475 3.0 0 0 0
 12.300000190734863 -2.9000000953674316 0.0 0 0 0
 12.300000190734863 -2.9000000953674316 3.200000047683716 0 0 0
 12.300000190734863 -2.9000000953674316 3.4000000953674316 0 0 0
 12.300000190734863 -2.700000047683716 0.0 0 0 0
 12.300000190734863 -2.700000047683716 3.5999999046325684 0 0 0
 12.300000190734863 -2.5 0.0 0 0 0
 12.300000190734863 -2.5 3.799999952316284 0 0 0
 12.300000190734863 -2.5 4.0 0 0 0
 12.300000190734863 -2.5 4.199999809265137 0 0 0
 12.300000190734863 -2.3000001907348633 0.0 0 0 0
 12.300000190734863 -2.3000001907348633 4.400000095367432 0 0 0
 12.300000190734863 -2.3000001907348633 4.599999904632568 0 0 0
 12.300000190734863 -2.1000001430511475 0.0 0 0 0
 12.300000190734863 -2.1000001430511475 4.800000190734863 0 0 0
 12.300000190734863 -2.1000001430511475 5.0 0 0 0
 12.300000190734863 -1.9000000953674316 0.0 0 0 0
 12.300000190734863 -1.9000000953674316 5.199999809265137 0 0 0
 12.300000190734863 -1.9000000953674316 5.400000095367432 0 0 0
 12.300000190734863 -1.7000000476837158 0.0 0 0 0
 12.300000190734863 -1.7000000476837158 5.599999904632568 0 0 0
 12.300000190734863 -1.7000000476837158 5.800000190734863 0 0 0
 12.300000190734863 -1.5000001192092896 0.0 0 0 0
 12.300000190734863 -1.5000001192092896 6.0 0 0 0
 12.300000190734863 -1.5000001192092896 6.199999809265137 0 0 0
 12.300000190734863 -1.3000000715255737 0.0 0 0 0
 12.300000190734863 -1.3000000715255737 6.400000095367432 0 0 0
 12.300000190734863 -1.3000000715255737 6.599999904632568 0 0 0
 12.300000190734863 -1.1000001430511475 0.0 0 0 0
 12.300000190734863 -1.1000001430511475 6.800000190734863 0 0 0
 12.300000190734863 -0.9000000953674316 0.0 0 0 0
 12.300000190734863 -0.9000000953674316 7.0 0 0 0
 12.300000190734863 -0.9000000953674316 7.199999809265137 0 0 0
 12.300000190734863 -0.9000000953674316 7.400000095367432 0 0 0
 12.300000190734863 -0.7000001072883606 0.0 0 0 0
 12.300000190734863 -0.7000001072883606 7.599999904632568 0 0 0
 12.300000190734863 -0.7000001072883606 7.800000190734863 0 0 0
 12.300000190734863 -0.5000001192092896 0.0 0 0 0
 12.300000190734863 -0.5000001192092896 8.0 0 0 0
 12.300000190734863 -0.3000001013278961 0.0 0 0 0
 12.300000190734863 -0.3000001013278961 8.199999809265137 0 0 0
 12.300000190734863 -0.3000001013278961 8.399999618530273 0 0 0
 12.300000190734863 -0.10000009834766388 0.0 0 0 0
 12.300000190734863 -0.10000009834766388 8.600000381469727 0 0 0
 12.300000190734863 -0.10000009834766388 8.800000190734863 0 0 0
 12.300000190734863 0.09999990463256836 0.0 0 0 0
 12.300000190734863 0.09999990463256836 9.0 0 0 0
 12.300000190734863 0.09999990463256836 9.199999809265137 0 0 0
 12.300000190734863 0.2999998927116394 0.0 0 0 0
 12.300000190734863 0.2999998927116394 9.399999618530273 0 0 0
 12.300000190734863 0.2999998927116394 9.600000381469727 0 0 0
 12.300000190734863 0.49999991059303284 0.0 0 0 0
 12.300000190734863 0.49999991059303284 9.800000190734863 0 0 0
 12.300000190734863 0.49999991059303284 10.0 0 0 0
 12.300000190734863 0.6999999284744263 0.0 0 0 0
 12.300000190734863 0.6999999284744263 10.0 0 0 0
 12.300000190734863 0.6999999284744263 10.199999809265137 0 0 0
 12.300000190734863 0.6999999284744263 10.399999618530273 0 0 0
 12.300000190734863 0.8999999165534973 0.0 0 0 0
 12.300000190734863 0.8999999165534973 9.600000381469727 0 0 0
 12.300000190734863 0.8999999165534973 9.800000190734863 0 0 0
 12.300000190734863 1.0999999046325684 0.0 0 0 0
 12.300000190734863 1.0999999046325684 9.0 0 0 0
 12.300000190734863 1.0999999046325684 9.199999809265137 0 0 0
 12.300000190734863 1.0999999046325684 9.399999618530273 0 0 0
 12.300000190734863 1.2999999523162842 0.0 0 0 0
 12.300000190734863 1.2999999523162842 8.399999618530273 0 0 0
 12.300000190734863 1.2999999523162842 8.600000381469727 0 0 0
 12.300000190734863 1.2999999523162842 8.800000190734863 0 0 0
 12.300000190734863 1.4999998807907104 0.0 0 0 0
 12.300000190734863 1.4999998807907104 7.800000190734863 0 0 0
 12.300000190734863 1.4999998807907104 8.0 0 0 0
 12.300000190734863 1.4999998807907104 8.199999809265137 0 0 0
 12.300000190734863 1.6999999284744263 0.0 0 0 0
 12.300000190734863 1.6999999284744263 7.400000095367432 0 0 0
 12.300000190734863 1.6999999284744263 7.599999904632568 0 0 0
 12.300000190734863 1.8999998569488525 0.0 0 0 0
 12.300000190734863 1.8999998569488525 6.800000190734863 0 0 0
 12.300000190734863 1.8999998569488525 7.0 0 0 0
 12.300000190734863 1.8999998569488525 7.199999809265137 0 0 0
 12.300000190734863 2.0999999046325684 0.0 0 0 0
 12.300000190734863 2.0999999046325684 6.400000095367432 0 0 0
 12.300000190734863 2.0999999046325684 6.599999904632568 0 0 0
 12.300000190734863 2.299999952316284 0.0 0 0 0
 12.300000190734863 2.299999952316284 5.599999904632568 0 0 0
 12.300000190734863 2.299999952316284 5.800000190734863 0 0 0
 12.300000190734863 2.299999952316284 6.0 0 0 0
 12.300000190734863 2.299999952316284 6.199999809265137 0 0 0
 12.300000190734863 2.5 0.0 0 0 0
 12.300000190734863 2.5 5.199999809265137 0 0 0
 12.300000190734863 2.5 5.400000095367432 0 0 0
 12.300000190734863 2.6999998092651367 0.0 0 0 0
 12.300000190734863 2.6999998092651367 4.599999904632568 0 0 0
 12.300000190734863 2.6999998092651367 4.800000190734863 0 0 0
 12.300000190734863 2.6999998092651367 5.0 0 0 0
 12.300000190734863 2.8999998569488525 0.0 0 0 0
 12.300000190734863 2.8999998569488525 4.199999809265137 0 0 0
 12.300000190734863 2.8999998569488525 4.400000095367432 0 0 0
 12.300000190734863 3.0999999046325684 0.0 0 0 0
 12.300000190734863 3.0999999046325684 3.4000000953674316 0 0 0
 12.300000190734863 3.0999999046325684 3.5999999046325684 0 0 0
 12.300000190734863 3.0999999046325684 3.799999952316284 0 0 0
 12.300000190734863 3.0999999046325684 4.0 0 0 0
 12.300000190734863 3.299999952316284 0.0 0 0 0
 12.300000190734863 3.299999952316284 3.0 0 0 0
 12.300000190734863 3.299999952316284 3.200000047683716 0 0 0
 12.300000190734863 3.5 0.0 0 0 0
 12.300000190734863 3.5 2.4000000953674316 0 0 0
 12.300000190734863 3.5 2.5999999046325684 0 0 0
 12.300000190734863 3.5 2.799999952316284 0 0 0
 12.300000190734863 3.6999998092651367 0.0 0 0 0
 12.300000190734863 3.6999998092651367 2.0 0 0 0
 12.300000190734863 3.6999998092651367 2.200000047683716 0 0 0
 12.300000190734863 3.8999998569488525 0.0 0 0 0
 12.300000190734863 3.8999998569488525 1.399999976158142 0 0 0
 12.300000190734863 3.8999998569488525 1.600000023841858 0 0 0
 12.300000190734863 3.8999998569488525 1.7999999523162842 0 0 0
 12.300000190734863 4.099999904632568 0.0 0 0 0
 12.300000190734863 4.099999904632568 0.20000000298023224 0 0 0
 12.300000190734863 4.099999904632568 0.4000000059604645 0 0 0
 12.300000190734863 4.099999904632568 0.800000011920929 0 0 0
 12.300000190734863 4.099999904632568 1.0 0 0 0
 12.300000190734863 4.099999904632568 1.2000000476837158 0 0 0
 12.300000190734863 4.299999713897705 0.6000000238418579 0 0 0
 12.5 -3.9000000953674316 1.399999976158142 0 0 0
 12.5 -3.9000000953674316 1.600000023841858 0 0 0
 12.5 -3.700000047683716 0.800000011920929 0 0 0
 12.5 -3.700000047683716 1.0 0 0 0
 12.5 -3.700000047683716 1.2000000476837158 0 0 0
 12.5 -3.700000047683716 1.7999999523162842 0 0 0
 12.5 -3.5 0.20000000298023224 0 0 0
 12.5 -3.5 0.4000000059604645 0 0 0
 12.5 -3.5 0.6000000238418579 0 0 0
 12.5 -3.5 2.0 0 0 0
 12.5 -3.5 2.200000047683716 0 0 0
 12.5 -3.3000001907348633 0.0 0 0 0
 12.5 -3.3000001907348633 2.4000000953674316 0 0 0
 12.5 -3.3000001907348633 2.5999999046325684 0 0 0
 12.5 -3.1000001430511475 0.0 0 0 0
 12.5 -3.1000001430511475 2.799999952316284 0 0 0
 12.5 -3.1000001430511475 3.0 0 0 0
 12.5 -2.9000000953674316 0.0 0 0 0
 12.5 -2.9000000953674316 3.200000047683716 0 0 0
 12.5 -2.9000000953674316 3.4000000953674316 0 0 0
 12.5 -2.700000047683716 0.0 0 0 0
 12.5 -2.700000047683716 3.5999999046325684 0 0 0
 12.5 -2.700000047683716 3.799999952316284 0 0 0
 12.5 -2.5 0.0 0 0 0
 12.5 -2.5 4.0 0 0 0
 12.5 -2.5 4.199999809265137 0 0 0
 12.5 -2.3000001907348633 0.0 0 0 0
 12.5 -2.3000001907348633 4.400000095367432 0 0 0
 12.5 -2.3000001907348633 4.599999904632568 0 0 0
 12.5 -2.1000001430511475 0.0 0 0 0
 12.5 -2.1000001430511475 4.800000190734863 0 0 0
 12.5 -2.1000001430511475 5.0 0 0 0
 12.5 -1.9000000953674316 0.0 0 0 0
 12.5 -1.9000000953674316 5.199999809265137 0 0 0
 12.5 -1.9000000953674316 5.400000095367432 0 0 0
 12.5 -1.7000000476837158 0.0 0 0 0
 12.5 -1.7000000476837158 5.599999904632568 0 0 0
 12.5 -1.7000000476837158 5.800000190734863 0 0 0
 12.5 -1.5000001192092896 0.0 0 0 0
 12.5 -1.5000001192092896 6.0 0 0 0
 12.5 -1.5000001192092896 6.199999809265137 0 0 0
 12.5 -1.3000000715255737 0.0 0 0 0
 12.5 -1.3000000715255737 6.400000095367432 0 0 0
 12.5 -1.3000000715255737 6.599999904632568 0 0 0
 12.5 -1.1000001430511475 0.0 0 0 0
 12.5 -1.1000001430511475 6.800000190734863 0 0 0
 12.5 -0.9000000953674316 0.0 0 0 0
 12.5 -0.9000000953674316 7.0 0 0 0
 12.5 -0.9000000953674316 7.199999809265137 0 0 0
 12.5 -0.7000001072883606 0.0 0 0 0
 12.5 -0.7000001072883606 7.400000095367432 0 0 0
 12.5 -0.7000001072883606 7.599999904632568 0 0 0
 12.5 -0.7000001072883606 7.800000190734863 0 0 0
 12.5 -0.5000001192092896 0.0 0 0 0
 12.5 -0.5000001192092896 8.0 0 0 0
 12.5 -0.3000001013278961 0.0 0 0 0
 12.5 -0.3000001013278961 8.199999809265137 0 0 0
 12.5 -0.3000001013278961 8.399999618530273 0 0 0
 12.5 -0.10000009834766388 0.0 0 0 0
 12.5 -0.10000009834766388 8.600000381469727 0 0 0
 12.5 -0.10000009834766388 8.800000190734863 0 0 0
 12.5 0.09999990463256836 0.0 0 0 0
 12.5 0.09999990463256836 9.0 0 0 0
 12.5 0.09999990463256836 9.199999809265137 0 0 0
 12.5 0.09999990463256836 9.399999618530273 0 0 0
 12.5 0.2999998927116394 0.0 0 0 0
 12.5 0.2999998927116394 9.600000381469727 0 0 0
 12.5 0.49999991059303284 0.0 0 0 0
 12.5 0.49999991059303284 9.600000381469727 0 0 0
 12.5 0.49999991059303284 9.800000190734863 0 0 0
 12.5 0.49999991059303284 10.0 0 0 0
 12.5 0.6999999284744263 0.0 0 0 0
 12.5 0.6999999284744263 9.600000381469727 0 0 0
 12.5 0.6999999284744263 9.800000190734863 0 0 0
 12.5 0.6999999284744263 10.0 0 0 0
 12.5 0.8999999165534973 0.0 0 0 0
 12.5 0.8999999165534973 9.399999618530273 0 0 0
 12.5 0.8999999165534973 9.600000381469727 0 0 0
 12.5 0.8999999165534973 9.800000190734863 0 0 0
 12.5 1.0999999046325684 0.0 0 0 0
 12.5 1.0999999046325684 9.0 0 0 0
 12.5 1.0999999046325684 9.199999809265137 0 0 0
 12.5 1.2999999523162842 0.0 0 0 0
 12.5 1.2999999523162842 8.399999618530273 0 0 0
 12.5 1.2999999523162842 8.600000381469727 0 0 0
 12.5 1.2999999523162842 8.800000190734863 0 0 0
 12.5 1.4999998807907104 0.0 0 0 0
 12.5 1.4999998807907104 7.800000190734863 0 0 0
 12.5 1.4999998807907104 8.0 0 0 0
 12.5 1.4999998807907104 8.199999809265137 0 0 0
 12.5 1.6999999284744263 0.0 0 0 0
 12.5 1.6999999284744263 7.199999809265137 0 0 0
 12.5 1.6999999284744263 7.400000095367432 0 0 0
 12.5 1.6999999284744263 7.599999904632568 0 0 0
 12.5 1.8999998569488525 0.0 0 0 0
 12.5 1.8999998569488525 6.800000190734863 0 0 0
 12.5 1.8999998569488525 7.0 0 0 0
 12.5 2.0999999046325684 0.0 0 0 0
 12.5 2.0999999046325684 6.0 0 0 0
 12.5 2.0999999046325684 6.199999809265137 0 0 0
 12.5 2.0999999046325684 6.400000095367432 0 0 0
 12.5 2.0999999046325684 6.599999904632568 0 0 0
 12.5 2.299999952316284 0.0 0 0 0
 12.5 2.299999952316284 5.599999904632568 0 0 0
 12.5 2.299999952316284 5.800000190734863 0 0 0
 12.5 2.5 0.0 0 0 0
 12.5 2.5 5.0 0 0 0
 12.5 2.5 5.199999809265137 0 0 0
 12.5 2.5 5.400000095367432 0 0 0
 12.5 2.6999998092651367 0.0 0 0 0
 12.5 2.6999998092651367 4.599999904632568 0 0 0
 12.5 2.6999998092651367 4.800000190734863 0 0 0
 12.5 2.8999998569488525 0.0 0 0 0
 12.5 2.8999998569488525 4.0 0 0 0
 12.5 2.8999998569488525 4.199999809265137 0 0 0
 12.5 2.8999998569488525 4.400000095367432 0 0 0
 12.5 3.0999999046325684 0.0 0 0 0
 12.5 3.0999999046325684 3.5999999046325684 0 0 0
 12.5 3.0999999046325684 3.799999952316284 0 0 0
 12.5 3.299999952316284 0.0 0 0 0
 12.5 3.299999952316284 2.799999952316284 0 0 0
 12.5 3.299999952316284 3.0 0 0 0
 12.5 3.299999952316284 3.200000047683716 0 0 0
 12.5 3.299999952316284 3.4000000953674316 0 0 0
 12.5 3.5 0.0 0 0 0
 12.5 3.5 2.4000000953674316 0 0 0
 12.5 3.5 2.5999999046325684 0 0 0
 12.5 3.6999998092651367 0.0 0 0 0
 12.5 3.6999998092651367 1.7999999523162842 0 0 0
 12.5 3.6999998092651367 2.0 0 0 0
 12.5 3.6999998092651367 2.200000047683716 0 0 0
 12.5 3.8999998569488525 0.0 0 0 0
 12.5 3.8999998569488525 1.2000000476837158 0 0 0
 12.5 3.8999998569488525 1.399999976158142 0 0 0
 12.5 3.8999998569488525 1.600000023841858 0 0 0
 12.5 4.099999904632568 0.20000000298023224 0 0 0
 12.5 4.099999904632568 0.4000000059604645 0 0 0
 12.5 4.099999904632568 0.6000000238418579 0 0 0
 12.5 4.099999904632568 0.800000011920929 0 0 0
 12.5 4.099999904632568 1.0 0 0 0
 12.699999809265137 -3.9000000953674316 1.399999976158142 0 0 0
 12.699999809265137 -3.9000000953674316 1.600000023841858 0 0 0
 12.699999809265137 -3.700000047683716 0.800000011920929 0 0 0
 12.699999809265137 -3.700000047683716 1.0 0 0 0
 12.699999809265137 -3.700000047683716 1.2000000476837158 0 0 0
 12.699999809265137 -3.700000047683716 1.7999999523162842 0 0 0
 12.699999809265137 -3.5 0.20000000298023224 0 0 0
 12.699999809265137 -3.5 0.4000000059604645 0 0 0
 12.699999809265137 -3.5 0.6000000238418579 0 0 0
 12.699999809265137 -3.5 2.0 0 0 0
 12.699999809265137 -3.5 2.200000047683716 0 0 0
 12.699999809265137 -3.3000001907348633 0.0 0 0 0
 12.699999809265137 -3.3000001907348633 2.4000000953674316 0 0 0
 12.699999809265137 -3.3000001907348633 2.5999999046325684 0 0 0
 12.699999809265137 -3.1000001430511475 0.0 0 0 0
 12.699999809265137 -3.1000001430511475 2.799999952316284 0 0 0
 12.699999809265137 -3.1000001430511475 3.0 0 0 0
 12.699999809265137 -2.9000000953674316 0.0 0 0 0
 12.699999809265137 -2.9000000953674316 3.200000047683716 0 0 0
 12.699999809265137 -2.9000000953674316 3.4000000953674316 0 0 0
 12.699999809265137 -2.9000000953674316 3.5999999046325684 0 0 0
 12.699999809265137 -2.700000047683716 0.0 0 0 0
 12.699999809265137 -2.700000047683716 3.799999952316284 0 0 0
 12.699999809265137 -2.5 0.0 0 0 0
 12.699999809265137 -2.5 4.0 0 0 0
 12.699999809265137 -2.5 4.199999809265137 0 0 0
 12.699999809265137 -2.3000001907348633 0.0 0 0 0
 12.699999809265137 -2.3000001907348633 4.400000095367432 0 0 0
 12.699999809265137 -2.3000001907348633 4.599999904632568 0 0 0
 12.699999809265137 -2.1000001430511475 0.0 0 0 0
 12.699999809265137 -2.1000001430511475 4.800000190734863 0 0 0
 12.699999809265137 -2.1000001430511475 5.0 0 0 0
 12.699999809265137 -1.9000000953674316 0.0 0 0 0
 12.699999809265137 -1.9000000953674316 5.199999809265137 0 0 0
 12.699999809265137 -1.9000000953674316 5.400000095367432 0 0 0
 12.699999809265137 -1.7000000476837158 0.0 0 0 0
 12.699999809265137 -1.7000000476837158 5.599999904632568 0 0 0
 12.699999809265137 -1.7000000476837158 5.800000190734863 0 0 0
 12.699999809265137 -1.5000001192092896 0.0 0 0 0
 12.699999809265137 -1.5000001192092896 6.0 0 0 0
 12.699999809265137 -1.3000000715255737 0.0 0 0 0
 12.699999809265137 -1.3000000715255737 6.199999809265137 0 0 0
 12.699999809265137 -1.3000000715255737 6.400000095367432 0 0 0
 12.699999809265137 -1.3000000715255737 6.599999904632568 0 0 0
 12.699999809265137 -1.1000001430511475 0.0 0 0 0
 12.699999809265137 -1.1000001430511475 6.800000190734863 0 0 0
 12.699999809265137 -1.1000001430511475 7.0 0 0 0
 12.699999809265137 -0.9000000953674316 0.0 0 0 0
 12.699999809265137 -0.9000000953674316 7.199999809265137 0 0 0
 12.699999809265137 -0.7000001072883606 0.0 0 0 0
 12.699999809265137 -0.7000001072883606 7.400000095367432 0 0 0
 12.699999809265137 -0.7000001072883606 7.599999904632568 0 0 0
 12.699999809265137 -0.5000001192092896 0.0 0 0 0
 12.699999809265137 -0.5000001192092896 7.800000190734863 0 0 0
 12.699999809265137 -0.5000001192092896 8.0 0 0 0
 12.699999809265137 -0.5000001192092896 8.199999809265137 0 0 0
 12.699999809265137 -0.3000001013278961 0.0 0 0 0
 12.699999809265137 -0.3000001013278961 8.399999618530273 0 0 0
 12.699999809265137 -0.3000001013278961 8.600000381469727 0 0 0
 12.699999809265137 -0.10000009834766388 0.0 0 0 0
 12.699999809265137 -0.10000009834766388 8.800000190734863 0 0 0
 12.699999809265137 0.09999990463256836 0.0 0 0 0
 12.699999809265137 0.09999990463256836 9.0 0 0 0
 12.699999809265137 0.09999990463256836 9.199999809265137 0 0 0
 12.699999809265137 0.09999990463256836 9.399999618530273 0 0 0
 12.699999809265137 0.2999998927116394 0.0 0 0 0
 12.699999809265137 0.2999998927116394 9.199999809265137 0 0 0
 12.699999809265137 0.2999998927116394 9.399999618530273 0 0 0
 12.699999809265137 0.49999991059303284 0.0 0 0 0
 12.699999809265137 0.49999991059303284 9.0 0 0 0
 12.699999809265137 0.49999991059303284 9.199999809265137 0 0 0
 12.699999809265137 0.49999991059303284 9.399999618530273 0 0 0
 12.699999809265137 0.6999999284744263 0.0 0 0 0
 12.699999809265137 0.6999999284744263 9.0 0 0 0
 12.699999809265137 0.6999999284744263 9.199999809265137 0 0 0
 12.699999809265137 0.6999999284744263 9.399999618530273 0 0 0
 12.699999809265137 0.8999999165534973 0.0 0 0 0
 12.699999809265137 0.8999999165534973 9.0 0 0 0
 12.699999809265137 0.8999999165534973 9.199999809265137 0 0 0
 12.699999809265137 0.8999999165534973 9.399999618530273 0 0 0
 12.699999809265137 1.0999999046325684 0.0 0 0 0
 12.699999809265137 1.0999999046325684 8.800000190734863 0 0 0
 12.699999809265137 1.0999999046325684 9.0 0 0 0
 12.699999809265137 1.0999999046325684 9.199999809265137 0 0 0
 12.699999809265137 1.2999999523162842 0.0 0 0 0
 12.699999809265137 1.2999999523162842 8.199999809265137 0 0 0
 12.699999809265137 1.2999999523162842 8.399999618530273 0 0 0
 12.699999809265137 1.2999999523162842 8.600000381469727 0 0 0
 12.699999809265137 1.4999998807907104 0.0 0 0 0
 12.699999809265137 1.4999998807907104 7.599999904632568 0 0 0
 12.699999809265137 1.4999998807907104 7.800000190734863 0 0 0
 12.699999809265137 1.4999998807907104 8.0 0 0 0
 12.699999809265137 1.6999999284744263 0.0 0 0 0
 12.699999809265137 1.6999999284744263 7.199999809265137 0 0 0
 12.699999809265137 1.6999999284744263 7.400000095367432 0 0 0
 12.699999809265137 1.8999998569488525 0.0 0 0 0
 12.699999809265137 1.8999998569488525 6.599999904632568 0 0 0
 12.699999809265137 1.8999998569488525 6.800000190734863 0 0 0
 12.699999809265137 1.8999998569488525 7.0 0 0 0
 12.699999809265137 2.0999999046325684 0.0 0 0 0
 12.699999809265137 2.0999999046325684 6.199999809265137 0 0 0
 12.699999809265137 2.0999999046325684 6.400000095367432 0 0 0
 12.699999809265137 2.299999952316284 0.0 0 0 0
 12.699999809265137 2.299999952316284 5.400000095367432 0 0 0
 12.699999809265137 2.299999952316284 5.599999904632568 0 0 0
 12.699999809265137 2.299999952316284 5.800000190734863 0 0 0
 12.699999809265137 2.299999952316284 6.0 0 0 0
 12.699999809265137 2.5 0.0 0 0 0
 12.699999809265137 2.5 5.0 0 0 0
 12.699999809265137 2.5 5.199999809265137 0 0 0
 12.699999809265137 2.6999998092651367 0.0 0 0 0
 12.699999809265137 2.6999998092651367 4.400000095367432 0 0 0
 12.699999809265137 2.6999998092651367 4.599999904632568 0 0 0
 12.699999809265137 2.6999998092651367 4.800000190734863 0 0 0
 12.699999809265137 2.8999998569488525 0.0 0 0 0
 12.699999809265137 2.8999998569488525 4.0 0 0 0
 12.699999809265137 2.8999998569488525 4.199999809265137 0 0 0
 12.699999809265137 3.0999999046325684 0.0 0 0 0
 12.699999809265137 3.0999999046325684 3.200000047683716 0 0 0
 12.699999809265137 3.0999999046325684 3.4000000953674316 0 0 0
 12.699999809265137 3.0999999046325684 3.5999999046325684 0 0 0
 12.699999809265137 3.0999999046325684 3.799999952316284 0 0 0
 12.699999809265137 3.299999952316284 0.0 0 0 0
 12.699999809265137 3.299999952316284 2.799999952316284 0 0 0
 12.699999809265137 3.299999952316284 3.0 0 0 0
 12.699999809265137 3.5 0.0 0 0 0
 12.699999809265137 3.5 2.200000047683716 0 0 0
 12.699999809265137 3.5 2.4000000953674316 0 0 0
 12.699999809265137 3.5 2.5999999046325684 0 0 0
 12.699999809265137 3.6999998092651367 0.0 0 0 0
 12.699999809265137 3.6999998092651367 1.600000023841858 0 0 0
 12.699999809265137 3.6999998092651367 1.7999999523162842 0 0 0
 12.699999809265137 3.6999998092651367 2.0 0 0 0
 12.699999809265137 3.8999998569488525 0.0 0 0 0
 12.699999809265137 3.8999998569488525 1.0 0 0 0
 12.699999809265137 3.8999998569488525 1.2000000476837158 0 0 0
 12.699999809265137 3.8999998569488525 1.399999976158142 0 0 0
 12.699999809265137 4.099999904632568 0.20000000298023224 0 0 0
 12.699999809265137 4.099999904632568 0.4000000059604645 0 0 0
 12.699999809265137 4.099999904632568 0.6000000238418579 0 0 0
 12.699999809265137 4.099999904632568 0.800000011920929 0 0 0
 12.899999618530273 -3.9000000953674316 1.399999976158142 0 0 0
 12.899999618530273 -3.700000047683716 0.800000011920929 0 0 0
 12.899999618530273 -3.700000047683716 1.0 0 0 0
 12.899999618530273 -3.700000047683716 1.2000000476837158 0 0 0
 12.899999618530273 -3.700000047683716 1.600000023841858 0 0 0
 12.899999618530273 -3.700000047683716 1.7999999523162842 0 0 0
 12.899999618530273 -3.700000047683716 2.0 0 0 0
 12.899999618530273 -3.5 0.20000000298023224 0 0 0
 12.899999618530273 -3.5 0.4000000059604645 0 0 0
 12.899999618530273 -3.5 0.6000000238418579 0 0 0
 12.899999618530273 -3.5 2.200000047683716 0 0 0
 12.899999618530273 -3.5 2.4000000953674316 0 0 0
 12.899999618530273 -3.3000001907348633 0.0 0 0 0
 12.899999618530273 -3.3000001907348633 2.5999999046325684 0 0 0
 12.899999618530273 -3.3000001907348633 2.799999952316284 0 0 0
